# 3D point list with one line of data per point:
#   POINT3D_ID, X, Y, Z, R, G, B, ERROR, TRACK[] as (IMAGE_ID, POINT2D_IDX)
# Number of points: 369, mean track length: 5.1399169837426495
5326 -0.40400805556378355 1.7757723220553085 1.4031923901381571 247 181 47 1.5587704202574131 10 375 96 493 71 491
240 0.61802792296002751 1.2267843175594679 1.3411961050511598 139 125 46 0.21183157465057442 95 626 97 617 17 618 41 548 51 29 30 24 90 19
5327 -0.9398433899976415 1.9790874667559468 1.7024496272469027 254 195 54 0.38490805790565696 10 426 71 532 96 536
241 0.73061762056820245 1.2542380172224852 1.3579283754427105 97 75 16 0.28530282116617534 95 633 97 618 17 619 29 412 41 549 51 602 30 502 90 540 64 748 77 15
5328 -1.0638602316426471 2.0187943953658087 1.6864361794064784 207 209 232 1.1544562578782698 61 421 96 538 52 133
242 0.072050836811743318 1.2256693940639225 1.7066555462233968 24 26 37 0.13963233968867553 95 627 97 619 17 615 41 543 51 596 36 511 30 503 90 762
5329 0.078621527486776394 2.0277313257740555 2.1196537811363947 62 36 12 0.7134238486265253 71 558 96 563 10 441
243 0.062202914683095939 1.2517321487663886 1.7943783854401385 28 27 24 0.27972570627307403 95 628 97 620 17 620 51 30 36 512 30 507
244 0.60086843042925386 1.2920539533347462 1.3662048881895543 127 115 41 0.22993589186786098 95 631 97 623 41 553 51 606 30 27 36 37 90 23
245 0.60095898948093318 1.2899225871991939 1.3706091700046918 127 115 41 0.10964019765836264 95 632 97 624 51 607 90 24
5332 -0.68596977093048517 1.5177467445118156 1.2061103123485317 154 3 0 0.76884884316349289 58 720 96 612 85 575 27 556 50 529 67 544
246 0.81399662097956216 1.3207218510250602 1.4558827886330223 97 76 16 0.35858723185399577 95 636 97 626 36 517 51 611 30 511 90 547 83 28 98 29 91 39
5333 0.11653067340968727 1.3370382311859559 1.9533989952804849 222 161 46 0.7997763316751566 10 560 71 737 96 623
247 0.50730405164538095 1.358096501763123 1.5753633838296475 23 22 22 0.19493507018541745 95 995 97 629 17 625 36 757
5334 0.013688802285985818 1.6166040857446455 1.9789100698282984 237 170 46 0.10767294430752324 10 574 96 641 71 750
248 0.50680913967609942 1.3597324814075273 1.5778927931134328 23 22 22 0.33773989968275181 95 996 97 630 17 624 51 864 36 756 30 767 90 781 98 765 83 966 98 1001 91 1024 46 968 9 1251 79 623 85 316
5335 -0.34535354224778231 1.7476430423226337 1.9245174986110187 241 182 51 0.7784088061298623 10 679 96 652 71 758
249 0.17062954413952078 1.4256332748408871 1.8836809918595481 32 32 38 0.12732491199738713 29 433 95 644 97 636 17 628 41 556 36 761 30 774
5336 0.10503286059657703 1.980189962990303 2.1635392768552402 231 171 42 0.32325415340088703 10 446 71 777 96 669
251 -0.49615812093297851 1.6275495124767065 1.1544618835121929 254 236 82 0.31255409635928449 95 1003 97 641 17 1001 41 1253 36 61 30 523
5338 0.66581876872934709 1.0479893749229416 1.3795503397479902 253 210 52 3.283257413936326 10 643 96 689
252 -0.11292056935655939 1.5399447151339281 1.8696593323164215 127 86 15 0.17226959062009475 95 123 97 647 36 543
5339 -0.45216805361706475 1.4959283353025801 1.2954976698737395 0 0 0 1.3745853146128437 71 808 96 693 10 731
253 0.37408326760680877 1.6197355858073927 1.5557228584120402 30 36 51 0.12803951618332324 95 663 97 650 51 889 36 768 30 790 90 799 77 62 58 59
5340 -1.0845643994396781 2.0347979223104273 1.722499599231059 206 208 230 0.49572585577935735 96 714 6 918 14 739 52 864 69 707
254 0.37472947738908302 1.6182956045548984 1.5660061564755303 30 36 51 0.063972768542286979 95 664 97 651 36 769 30 791
5341 -1.0801591809622426 2.1184320541513042 1.8198211286669133 146 135 144 1.9099200707393311 12 992 96 720 6 972
255 0.080971689247844106 1.7591998765755805 1.397165898013587 102 114 143 0.1809835847145492 95 673 97 661 41 672
5342 -0.97590837074654513 2.1553132046470971 1.9262837297458473 125 112 119 0.23100088898345172 10 692 71 862 96 721
256 0.21153645650305111 1.7609103426171377 1.6310077418974385 32 35 34 0.059314986094302274 95 679 97 664 17 695
5343 -0.071666476926106712 1.85921385475565 2.3154172639129436 152 147 159 1.0082764283530932 10 694 71 872 96 726
257 0.34842278039724572 1.7563767699185693 1.8173336129246396 32 38 50 0.16926670266222382 95 680 97 665 17 696 41 676 51 643 36 558 30 553 90 586 83 575 46 794 79 270 77 320 27 382 85 202
542 -0.43340791577436827 1.6109216392858465 1.2292595455364093 151 112 21 0.15342641614499836 95 122 17 113 51 44 30 48 98 23
543 -0.46045871195719085 1.6634745314290895 1.1538432829052876 95 84 23 0.13723007831611675 97 127 17 132 51 43 36 62 30 47
5630 0.81287075008282517 2.0215610658261673 2.434172389339317 251 228 179 0.26840800863362951 18 871 70 697 42 542
544 -0.46054015168228585 1.6630987417161061 1.1550508667946295 95 84 23 0.14926751811367975 97 128 17 133 51 42 36 63 30 46 90 38
5631 0.7219604111914032 1.7291489861179383 2.9547920971024255 233 218 181 0.52582959244753003 93 648 70 727 84 688 24 660 42 602 99 796 75 754 69 835
545 -0.095737799245880759 1.7993479738346096 1.6658854804972014 134 96 19 0.28960056202488638 95 166 17 155 41 135 64 525
5632 1.1279372257318157 2.0293181684688379 2.4512503316441796 245 224 177 0.28172718536272584 93 958 70 794 23 1006 42 641
546 0.60399892321184956 1.7984052969044786 2.8231598765534507 108 96 74 0.37279694264624302 95 192 17 165 51 109 36 143 97 194 30 117 90 109 83 611
5633 0.50740362284188034 2.1301915836085552 2.297768612853496 250 225 174 0.17856863822969812 18 1021 70 874 23 952 42 694
547 -0.080158345473331685 1.8159356238366546 1.6352138279370383 165 140 45 0.084118738129037862 95 167 17 177 55 790
5634 -0.58698548503632941 1.5249135427069427 1.6320758286461019 228 229 243 0.39377691604795628 24 1082 93 1073 70 890
548 -0.095803245853025631 1.8454815270186167 1.6008471149471519 161 136 51 0.4082131651542843 95 186 17 178 41 137 36 99 30 84 90 71 98 59 83 64 91 72 9 151 64 178
549 1.0187154943339662 1.8671024481286083 2.7162335566626838 137 125 101 0.10016800728873235 95 247 17 199 51 185 90 147
550 0.19632885062810859 1.8964125987541314 1.6386255340154496 108 94 31 0.27746259209071583 95 214 17 210 41 171 51 663 30 562 90 829 83 778
551 -0.49986580918503609 1.953629131843259 1.5259029494125711 166 115 24 0.0072505516018003188 17 240 46 168
5638 -0.84384456208924052 2.0988220492009524 1.0595010946517887 0 0 0 2.2630538653875276 18 1256 70 991
553 -1.0449820987195262 2.0966526408242872 1.6075347940415916 55 60 75 0.2191055758110351 95 286 17 268 36 578 97 708 30 107
5640 0.93704614334158509 2.315073498302338 2.0149433902561373 156 142 116 0.36043629347834555 18 1143 70 926 94 1153 24 1069 15 987 93 1061 23 1085
554 0.33552228200857548 2.063389836150229 2.0868576020284992 31 33 43 0.048734664976138341 95 294 17 278 51 695 90 844
5641 -0.8127141794014483 1.7311224190548271 1.0041173822161857 41 41 0 1.1419558854948679 93 1067 18 1150 70 814 87 925 94 1070 40 817 24 980 15 908 93 985 44 851 23 1096
555 -0.75909859125556978 2.0668582193799869 1.1438156207499242 95 116 155 0.078762045379322007 95 737 17 299 41 808
5642 -0.70093690865748282 2.1922281448760166 1.2379596862265583 106 95 30 0.47242147217640656 79 263 13 70 49 80 18 66 67 232 50 197
556 0.67910449666116846 2.0866824697955484 2.3440332114624787 115 104 81 0.13749776845288117 97 315 17 312 30 149
5643 -0.2115698930299271 1.9953566533570648 1.4249728791368377 252 212 54 0.072237233629548425 79 50 13 73 49 89
557 -0.79158723270433007 2.1383367173151484 1.2306376822895586 148 0 0 0.1326051524486348 95 314 17 325 41 337
5644 0.19505420585691766 1.7884588780691029 1.6310884893757722 108 88 23 0.23250568668557026 79 44 13 81 27 32
558 0.53152658262324171 2.1862722592806283 2.2486399328675466 232 216 177 0.038846548130028517 95 347 17 333 51 250
559 0.5976210349690485 2.1623539904649656 2.267624743107683 232 216 178 0.28672701942480638 95 350 17 336 41 270 51 252 90 211 98 183 91 242 46 827 9 838 55 831 7 740 64 531 94 598 87 685 40 595 26 520 60 506 93 463 70 348 18 583 49 256 23 584
5646 -0.055286412397487106 2.3421722778090452 1.440778172848763 5 5 7 0.107711235609669 79 308 13 124
560 0.75278949330323441 2.1544875207055618 2.2678726582099031 237 222 185 0.2055419776969738 95 355 17 341 29 178 41 274 64 533
5647 0.11509384553654174 1.9076987951814925 2.7177912875359795 60 39 25 0.29279115960538438 18 485 13 133 49 158 23 532
561 -1.4059628900200283 2.3287647918106162 2.1552434616427907 157 110 85 0.46281840725791529 97 374 17 358 41 821 95 802 51 187 90 131 33 484 48 189
5648 0.25432933267007629 2.2408449444173746 1.6786800879955226 38 39 50 0.11859634581032984 91 176 13 144
562 0.62179933685299227 2.2181789150366265 2.2039545659833029 125 112 87 0.20949767882068185 95 379 17 364 51 304 55 305
5649 0.4844516601162755 1.7630028140117771 2.8647813771263371 107 71 52 0.20870960659449189 18 223 13 160 49 209
563 -1.3481148895289981 2.3654391688516028 2.1277526845301566 71 46 29 0.5219574049362371 29 627 95 403 17 393 41 363 51 212 36 631 30 616 90 625 77 400 58 170 48 437 81 461 85 89 74 159 62 188 37 271 1 471
564 -0.87900568880868646 2.2606164472620804 1.3830961623311506 53 58 73 0.1887415368457864 95 804 17 400 41 833
5651 1.3971069941984857 2.2461754371937572 2.0467088534947133 109 81 71 0.34910172256301109 83 484 13 417 49 763
565 0.47517615646915418 2.2536454481804795 1.6817780354752225 97 85 66 1.4020933136442526 95 418 17 404 41 346
5652 -0.71099415359344642 2.2204812513951584 1.2425128506623617 30 30 36 0.26174450621929019 79 498 13 467 49 501 3 379 27 521 50 198 67 230
567 -1.3333593233205694 2.4594592054757762 2.0134060363104043 234 221 187 0.094115143330552931 95 444 97 441 17 420 41 421
568 -0.4974183094120479 2.3266102022636295 1.3297482881846652 3 2 1 0.61195705936413536 95 458 17 430 9 240
5655 0.52067909603980722 1.6167642305041987 3.2988949617572052 157 108 83 0.89977487203794237 79 81 13 541
569 -1.0708916147846277 2.5073027235725154 1.8951118532117908 129 127 117 0.027199493408195437 95 480 17 457 41 875
570 -1.0587298715818072 2.475514988337812 1.9205480146497911 123 122 111 0.26637905847496329 17 459 36 281 30 273
571 0.89780420672785355 2.3896015494215503 1.8101771182451949 108 78 68 0.2380770745745828 97 470 17 478 51 492 36 348 30 345 90 434 98 508 83 478 91 514 9 934 79 206
5658 1.1601955616181767 1.9526644306210141 2.5371193394813076 127 114 88 0.33223996224739355 18 638 13 687 49 734 3 567 23 626 89 214 75 238
572 0.97584732142706077 2.3761237850730299 1.8690494513151998 32 22 19 0.26329943425218588 95 507 17 479 41 388 46 640 7 539 26 336
5659 -0.25541487824062087 1.9185127437869485 1.4824171182907544 254 227 58 0.31030340038588089 79 257 13 732 49 1011 3 644 50 34 67 39
573 0.97651523061948686 2.3762485226949353 1.8685476758871098 32 22 19 0.19976337881998107 95 506 17 480 41 387 46 639 9 688 7 540
5660 0.16255621908730739 1.9043521998860844 1.6067849369417537 12 10 12 0.10420078658735597 79 501 13 748 49 825 3 660
574 0.9675880987105453 2.3964723780406687 1.8685687581303525 105 76 66 0.0997196225434865 95 509 17 482 41 389
5661 0.32097056787584965 1.7877848436040438 1.8187425984962631 112 90 25 0.13855292783906323 91 834 13 750 50 370
575 1.0393617364436643 2.3551173552509308 1.897041449712735 37 22 18 0.13814601884346819 97 438 17 483 41 358 46 642 9 689 55 484
5662 0.38436066814750647 1.742283049202632 1.8303405915321305 110 88 24 0.20407976283514961 83 767 13 751 49 530
577 0.73992909877682356 2.4200611662971099 1.779764072263176 108 78 66 0.07772452425149777 95 500 17 499 41 412
5664 0.35482111986375359 1.6945002318945857 2.8808536629253165 114 81 68 0.17767372999050893 83 588 13 770 49 1042
578 0.72501468215089293 2.435290115691819 1.745996519202544 34 23 21 0.067134516953947163 97 465 17 500 41 414
5665 0.33402904385050597 2.1930392169505204 2.2059468628166718 234 209 161 0.26781662100815168 79 540 91 1095 13 788 49 871 3 478
579 -1.1966060057443468 2.5861155648423475 1.7886954787078562 174 168 147 0.19999458233750317 95 528 97 810 17 504 41 888 30 347
580 -0.40559479713903002 2.4926062606908412 1.4121550040479731 29 40 59 0.14687779036163526 97 492 17 511 51 399 36 327 30 677 90 247 98 209 77 164
5667 0.32816195460143543 1.9145444264598472 1.9026213960994831 112 91 23 0.45050886628589787 91 1073 13 905 49 1031 3 787
581 -0.46699871660476694 2.5707578099204458 1.4182637440304824 30 39 57 0.33762033453614426 95 547 97 525 17 522 41 457 77 185
5668 0.31383903661039586 1.9746034994387245 1.9297202626307202 113 92 23 0.2831778652523777 79 656 13 910 49 1035 3 788
582 -0.46503209625085362 2.5682504339919969 1.4106326239603288 30 39 57 0.061193428491582956 95 546 17 523 41 456
5669 -0.39336976282599606 2.5208471405075628 1.4772676132975697 57 64 86 0.20528865908599658 79 741 13 911 49 839 27 605 50 498 67 522
583 0.31591525630690903 2.5734242024536638 1.6133203825868196 30 22 18 0.32766609194626645 95 552 17 525 41 452 55 546 7 527 64 666 94 263 40 293 26 342 60 565 53 491 82 457 5 537 34 491 78 464 54 462 4 492 43 414 88 451 68 112 59 519 32 83 21 538 65 507
5670 -0.8009028778619115 2.3823673815066413 1.167008094648724 0 0 0 0.8586526123591679 79 727 13 968 49 1013 3 837 27 584 50 557
584 -0.85858978459794599 2.6738015494293408 1.6316587954028625 100 102 92 0.074067625821142041 95 558 17 530 41 464
5671 -0.54674947376591854 2.2930386871477633 1.371776036775685 98 88 25 0.91371615642849524 79 734 13 971 3 840 27 635 85 585
585 -0.59021204385043202 2.6067139778227384 1.3644282405919406 26 34 52 0.25465060950759838 97 521 17 533 51 478 36 699 90 724 98 286 83 185 79 108 27 287 85 260 50 92 67 102
5672 -0.23606912290747384 2.1433857116934569 1.6235063116643407 8 3 1 0.4358544600215401 79 652 13 972 49 1027 3 841 67 510 50 484
586 0.0082331701424496109 2.6127353922427785 1.6386272519846716 67 77 78 0.24527006646302038 95 548 17 536 41 459 55 544 64 359
5673 -0.76808781175853691 2.487270950035664 1.2774472031143373 56 59 75 1.3709805219552742 18 966 13 975 49 1026 3 785 67 584 50 563
587 -0.46614872648052114 2.6607966694848604 1.4637742020930509 51 63 89 0.79480093262197693 95 914 17 550 41 466 90 917 98 693 83 897 91 690 9 840 79 543 13 544 49 547 3 689
5674 -0.23873246466972664 2.2287304811319668 1.5972583686264086 107 74 14 0.71199871432096806 79 736 13 1013 49 1181 3 910 27 592 85 531 50 607 67 636
588 -0.74741482332240872 2.7217939110650686 1.5253787538759225 62 63 57 0.0013124747086490575 95 570 41 475
5675 0.0097020794418989642 2.3079547084553065 1.641695385142788 75 60 15 0.11852404359037021 79 789 13 1014
589 -0.74151777603945324 2.8069986786754995 1.3892460338442956 80 85 79 0.077988327275761868 95 584 17 565 41 492
590 -0.42628615627262506 2.8286236814719867 1.2867001622452119 39 29 25 0.31079120007858013 95 591 17 570 41 493 29 378 64 409 82 315 5 355 34 290 78 267 54 249 4 274 59 577 21 619 47 557 65 577
5677 -0.15517566879703981 1.5988871039111476 1.3951557172919429 236 220 166 0.46323412081920456 9 89 3 929
591 -0.41768799946601937 2.8024463224492342 1.2870894280998684 108 74 54 0.31267801427153968 29 375 17 571 46 647 64 408 60 362 21 286 65 318 59 303 1 170
5678 0.66933113006693923 0.91169624343275946 2.2703874674395053 168 124 30 0.54222495196090181 18 1163 13 1036
592 -0.54191362286927014 2.868726035219777 1.2507641843379516 116 78 58 0.25747121288255237 97 584 17 575 41 494 64 414 5 369 34 312 54 266 21 642
5679 0.19662142364648655 2.2400679742334955 1.630765275681775 45 50 68 0.19045965542158597 79 820 13 1045 49 1184
594 -0.76223688627152175 2.9910151061524886 1.104013207374416 51 34 27 0.21708627178102244 97 594 17 585 36 741 30 484
5681 -0.76210395596418246 2.6263328282098137 1.242426269632589 0 0 0 1.3244335876822682 13 1069 49 1244 3 977 50 667 67 701
595 0.52878092516151254 1.0692185114947914 1.4565053731463244 144 129 39 0.087918095682881559 95 612 17 599 41 526
5682 -0.68250174078771741 2.8468952288587577 1.2910667294456311 126 130 122 2.538007578789331 79 863 13 1071 3 979 27 702 50 671 67 704
596 0.49807561042883197 1.1441657935627412 1.3611026877352879 17 13 6 0.26820578936625783 95 619 17 604 41 533 90 757 98 735 83 723 46 949 55 682 7 129
5683 0.49376621385380021 2.391306448016767 1.8838179126583465 208 191 153 1.0855644926169201 98 1288 49 1246 13 1073 3 964
597 0.61415632910279827 1.1505394018235768 1.351475678722394 109 85 17 0.20643629713575948 95 45 97 609 17 613 41 537 30 18 36 22
5684 0.52616995894963536 2.392219637692409 1.7365795546608873 0 0 0 0.52961412893625281 79 846 98 1289
598 -0.89299810249169065 1.6096218102450468 1.2442310554409102 173 129 29 0.082392332313494368 95 100 17 639 41 600
5685 0.83081458486809712 1.1401307979602049 1.8059274312383307 255 233 65 1.5598415515422197 91 1321 13 1081
599 -0.8309544377052841 1.5889593918799993 1.2716956686888201 177 129 28 0.078750359291296368 95 77 17 640 41 585
5686 -0.67812509015133449 1.7701743974835293 1.4472761227356639 65 70 90 0.35849985582152682 91 1329 13 1089
600 -0.85859533996530912 1.6418927345634755 1.1877003261954029 172 129 28 0.034646959153732643 95 101 17 654
5687 -0.30938620493831215 2.4223343342208294 1.5038937409032487 78 64 15 0.82442252399164173 36 1025 30 1054 79 787 83 1192 13 909 90 1039 98 842 83 818 27 640 85 588 50 611 67 638 3 847 77 747
601 -0.85859533996530912 1.6418927345634755 1.1877003261954029 172 129 28 0.034646959153732643 95 102 17 655
5688 -0.75689126623287795 3.0213332395031682 1.1289529391723367 75 74 69 0.95905072750021625 9 897 91 724 30 1079 90 1060 98 1110 83 1166 46 1207 9 1418 64 1087 53 968 5 980 54 1111 88 905 79 750 13 551 3 811 27 619 85 603 50 516 67 538
602 -0.72742751150611729 1.6644555901853564 1.1290636072490947 255 236 81 0.12634732120864778 95 108 17 658 41 629 46 710 9 34 55 986
5689 0.46781803154643764 0.81562942345960832 2.0673018913801688 159 156 46 1.5048466890635326 9 954 91 745 13 848 40 1093 24 1112 15 1042 93 1089 60 364 23 1035
603 -0.60911633672095677 1.6434968163994517 1.1681870079567891 165 124 31 0.10749581056473428 95 112 17 663 41 611
5690 0.85001130807749281 2.136269486739117 2.2847151660931071 128 120 100 1.7298480554010986 17 1573 97 1362 7 1388 55 1570 26 1150
604 -0.082904132030540492 1.7290512846011201 1.7641440741551817 173 141 48 0.13145108692103574 95 153 17 682 41 93 51 68
5691 -0.38642811284004935 1.639517134052332 1.1962334110080211 255 242 71 0.15082282792230864 13 432 49 15 3 10
605 -0.052857636384129117 1.7001467183233188 1.8057353272272274 121 93 21 0.19357434694758868 95 672 17 683 41 638
5692 -0.33059114162955355 1.7749746841348275 1.2905589633094128 95 71 13 0.1536501334003543 13 38 18 41 49 51
606 -0.26117113476020354 1.7836303328903129 1.6096201865848696 9 6 5 0.72785880744307085 95 670 17 688 41 667 90 808
5693 -0.68343037924837291 2.0878748241698268 1.2262955293932432 79 55 7 0.23599243339670761 13 55 49 73 3 54
607 -0.19547822217523791 1.763691849547445 1.6941556989511786 166 138 42 0.48914134586437236 95 1025 97 145 17 689
5694 -0.72909915569196804 2.1110755282422664 1.3445604788435022 175 139 43 0.70979682826998225 18 58 49 77 23 158
609 0.55884663243887467 1.9555119138217754 2.6132522641046076 232 215 178 0.097748119742982656 95 723 17 744 55 1023
5696 -0.54338053385419827 2.7589814426458741 1.3661348121246433 94 102 102 0.30968117283154795 13 169 49 164
611 0.29786820378858325 1.9428586055250385 1.888390875515024 88 57 8 0.27448447600610093 95 720 17 769 41 173 51 923 30 577 36 582 90 839 98 624 83 789 27 402 85 362
5698 0.45055408992986656 1.7304952332578836 2.8930097883610855 53 28 19 0.29072811954896194 13 159 18 222 49 184 3 192 23 579 75 437 89 423
612 0.29923314494299774 1.9410058375708863 1.8911841559073954 88 57 8 0.15085287482352816 95 721 17 770 41 172
5699 0.21369308528110964 2.3388371967143073 1.7253526738652538 29 33 48 0.21692261402823107 13 177 49 192 3 134
613 0.9489680082729306 1.9778344921299256 2.4961386370078231 234 218 181 0.12184006525779328 95 735 17 777 41 733
5700 0.60011784676790603 1.7085948380534868 2.9609411045683633 57 33 20 0.18233736969277711 13 163 83 91 49 214
614 -0.4691243384837151 2.0212810084239492 1.4683391263194252 62 43 6 0.15157688847883355 95 716 17 782 41 791 51 660 97 973 98 795 91 594 46 240 9 785
5701 0.28102650556309244 2.3201081491364208 1.749693547272914 31 33 45 0.12607966427960177 9 512 13 223 49 218 3 153
615 0.69810819670629198 2.0610962353625077 2.3954609678816996 233 217 178 0.046739680746939731 17 794 41 745
5702 0.33771908672855322 2.3293812508843161 1.7649226649465659 60 68 90 0.12213930024458536 13 224 49 221
617 0.82100566973854394 2.0187032793382844 2.4393365647252376 234 218 180 0.057834832103431433 97 288 17 796 41 749
5704 0.82274808444613434 1.6280761760803044 3.0729957977812012 77 47 31 0.35054780017906145 18 596 49 247 3 251 23 613 99 499 75 465 89 431
618 1.0145299801335323 2.0641502273240371 2.3961485248568746 231 217 181 0.036879590912710647 17 798 41 754
5705 0.59638824811483282 2.141917609280052 2.2911285979816638 106 95 75 0.080245278819016816 13 251 18 243 49 255
619 1.197012841670847 1.9983728202483346 2.4838983933516792 245 229 189 0.11945502418420757 95 757 17 801 51 725 90 641
5706 -6.9226023528175791 3.4104471360090063 12.473134545437469 126 117 97 2.4414350743727917 13 297 49 283
620 -0.7027942792512093 2.060714840942067 1.1702422040554572 76 94 132 0.16069653721387059 95 738 17 808 41 809
5707 -0.71812345375087372 2.1238394024462841 1.3170559959901877 127 72 5 0.38384616507894204 13 59 18 402 49 502
621 -0.31840452762026206 2.0714417336139439 1.3244115415322348 254 214 58 0.60388619076468542 95 742 17 811 41 811 29 540 51 675 30 105 90 592 98 802 83 771 91 830 9 1293 55 844 7 1012 64 887 60 714 26 692
5708 -0.22913983527955792 1.96524045574478 1.4547142781156033 115 87 35 0.10938058958971317 79 49 49 506
622 -0.23247683304548783 2.0459058946514586 1.3851351695664325 162 174 203 0.20677496216746979 29 519 17 812 41 793 55 845 7 719 87 565 94 443 40 456 26 538 60 528
5709 -0.15207211848796831 1.9408801102646398 1.6175996995409114 71 36 2 0.15713698357244099 13 476 49 512 3 391
623 0.94594196218376192 2.0851812648830266 2.3533128634141409 231 217 180 0.22109648224984788 95 765 17 814 41 774 51 738 30 174 90 636
5710 0.14245610720104904 1.7828376436646709 1.7869366310090768 63 24 0 0.30174304423028908 13 479 49 516 3 392
624 0.9476322361733962 2.0850006018575735 2.3556062974373018 231 217 180 0.12877417799509741 29 155 95 766 17 815 41 773 51 739
625 1.4435359193512267 2.1912857818137748 2.8202990143827993 233 218 182 1.4022518788470972 95 799 17 840 41 785
5712 -0.64087573017812927 2.6300535735416433 1.3465246244251559 2 1 3 0.10111117676137193 13 514 49 536 50 410 67 433
626 0.36369864462490764 2.2674018551597293 1.7786521118099539 47 53 72 0.84850744109540377 95 840 97 1132 17 856 41 345 51 1106 36 976 30 992 90 1033
5713 -0.028828354527162061 2.3511510746923445 1.6554190958433259 60 39 4 0.03377006399409687 13 534 49 551
627 0.33747905658201233 2.2795772295141461 1.7601931313473305 63 65 85 0.20466610265360854 95 839 17 857 41 344 51 750 83 662 46 520
5714 0.2593746686407935 2.0671136483349315 1.9583131567609924 67 38 4 0.079717338797356208 13 520 49 553 3 431
629 -1.233784954951302 2.5166086957506484 1.890157316469538 196 187 160 0.074740943526668296 95 512 17 863 41 873
5716 0.2300149708552916 2.1935171879640016 2.2005567745669161 89 68 47 0.23218523952613068 13 547 49 578 3 203
631 0.92718315759242131 2.3759354964948787 1.8533614553115676 107 77 66 0.44408842538825744 95 505 17 874 41 840 51 461 90 435 98 509 83 479 91 727 46 917 9 935 55 876 55 1135 7 779 87 906 94 618 40 795 26 559 60 560 24 685 93 679 18 916 70 540 49 735 99 470 75 429
5718 0.26772179617827052 2.3248747211834289 2.0680313949299465 186 167 127 0.073475194199098398 13 580 18 530 49 603 23 539
632 -1.2296160039053092 2.5559575537137671 1.848351619023245 200 190 162 0.083602529344935242 95 875 17 875 41 885
5719 0.88431981128247628 2.0908142641423964 2.3453500324894998 131 116 88 0.1880714846211223 13 666 49 698 3 539
633 -1.1995205866935306 2.5492412456276692 1.8400162012979042 193 184 158 0.025887815891901127 95 876 17 876 41 886
5720 1.4620931551334477 2.2457337577750405 2.0720312063700259 35 23 20 0.35613471498823746 13 700 18 376 49 765 3 738 23 380
634 -1.1995205866935306 2.5492412456276692 1.8400162012979042 193 184 158 0.025887815891901127 95 877 17 877 41 887
5721 0.26742338341553756 1.42142678543802 1.3893821046930868 27 28 38 0.12740247515144379 13 720 49 784 3 609
635 0.70239279785983588 2.4446210226426444 1.7996723457568498 105 74 62 0.18188594393722624 95 881 17 883 51 806
5722 -0.3158151308072405 1.780180452123693 1.2513746653353124 196 194 209 0.25650112358580762 13 449 18 662 49 792 3 624 67 22
636 -0.76408740780496287 2.5017552747419423 1.3304885318545943 53 55 67 0.29441906360639264 95 885 17 888 30 850
5723 -0.30933030410760676 2.0715451436399595 1.3815051549564994 65 67 83 0.44295196350207949 13 474 49 818 3 70
637 -0.99751405972309315 2.6317022958665732 1.6317491771841448 125 125 116 0.079634504321971264 95 894 17 894 41 908
5724 0.33549783665623062 1.6119792250399989 1.9743189812296935 21 14 2 0.2809162876950338 13 745 49 821 3 388
638 -0.41168472207846951 2.5296092245916122 1.4303925841509644 57 66 89 0.22278197007041695 95 886 17 900 41 891 36 857 30 856 90 877 9 829 46 876
5725 0.32640307049126238 1.5823039832074173 2.0325490907288035 167 165 168 0.32926654144207562 13 887 79 486 49 823 3 773
639 -0.55781444667962599 2.6305214733746247 1.4066929263109824 59 68 91 0.16353234530992394 95 1136 17 912 41 916
5726 0.2340736600224495 1.9662511150665691 1.6131587525874598 92 92 106 0.20444460364011549 13 486 49 829 3 400
640 -0.92829285193493605 2.720220648455987 1.5419674028355865 120 122 113 0.085778925768411493 95 919 17 916 41 922
5727 -0.61135360458621468 2.5845485439405098 1.3476571986127244 48 53 72 0.24710058921363171 13 906 49 832 50 569 67 588
641 -0.92829285193493605 2.720220648455987 1.5419674028355865 120 122 113 0.085778925768411493 95 920 17 917 41 923
5728 0.37675186047417153 1.8356456414102043 1.96935736908543 14 15 18 0.21011760750612343 13 494 18 463 49 834 3 667 23 675
642 -0.83228204650449933 2.7320322739514773 1.5218744546282739 115 116 106 0.11426831488822804 95 922 97 851 17 921
5729 -0.032085429029598711 1.8636814878632602 2.7545966852544446 113 79 64 1.3371832476862877 18 999 49 842 23 680 42 481 75 840
643 -0.67972573462938146 2.787293548483246 1.4214439472903684 71 76 72 0.15958744925305451 97 563 17 945 41 943 51 539 30 446
5730 0.41648639746191363 1.7565169757226435 2.8275119358909775 149 98 69 0.18936570143003262 13 138 49 861 3 460
644 -0.6682741748589287 2.8023938978567053 1.3759032847301997 110 113 106 0.07374092469842318 95 949 17 946 41 950
5731 0.70779706267098041 2.1521904482700362 2.2641067703874533 126 114 88 0.29856558143040185 13 800 49 903 3 710
645 -0.83578611153867999 2.8839053845409328 1.2827361397134709 90 95 89 0.16005792288552348 95 970 17 963 41 964
5732 1.3406766835297519 2.223266192581745 2.125327817377856 231 217 184 0.21678572418248079 18 1149 23 1093
646 0.4707444402177855 1.0332928493237092 1.5263386880285132 83 91 109 0.25293023602294706 95 604 17 979 41 977
5733 -0.70617380794120688 1.7846393513695267 1.1706833177182727 150 89 20 0.30343871814524687 13 853 49 985 3 825
647 0.38003074717786495 1.1596869159849872 1.4205612845933779 103 118 152 0.43777857024443567 97 1080 17 981 36 748 30 755
5734 0.56115235032288968 0.89864992401105748 2.1876297128180036 239 230 78 0.94195542882839567 13 437 49 987 3 748
648 0.27413952925874602 1.4213536319780682 1.3739670412872755 35 38 36 0.0605698209758029 95 639 17 985 41 557
5735 -0.37462274681771168 1.6414319366239962 1.2734283633410035 151 105 19 0.13129686393849921 13 854 49 988 3 755 50 456 67 485
649 -0.71412843868726816 1.6632860404653889 1.1578875327425686 254 229 77 0.58982032547835328 95 652 17 1000 64 1142 40 818 87 927 26 970 60 985 53 943 82 930 5 1039 34 1011 78 996 54 1040 4 1061 43 962 88 893 68 806 32 985
5736 0.29253917750493869 1.4081548206864483 1.4177164904075028 109 89 20 0.24350163815369655 13 856 49 993 3 610
650 -0.45526699716115049 1.6270300620686666 1.2049137511835519 162 118 23 0.22488897009946382 95 1004 17 1003 41 1009 51 875
5737 -0.65563258839619221 2.0120012970409942 1.2077344018203771 12 10 13 0.28416261612540789 13 729 49 1002 3 633
651 -0.40135731480754561 1.6082163524961579 1.2409173999025747 161 116 25 0.71834597701938918 95 1006 17 1005 41 1010 51 622 90 551 98 569 9 736 64 1025 87 461 40 363 26 505 60 500 24 280 53 248
5738 -0.76191071067226768 2.2400670501442357 1.1502162370786917 0 0 0 1.1044031561186176 13 736 49 1010 3 833 50 554 27 574
652 0.15247978998372747 1.696764994415169 1.4403467415907607 99 111 139 0.29700011497744466 29 944 97 951 17 1011
5739 0.1908227085070866 1.810429827475688 1.688818603834273 107 87 24 0.55159138458037227 13 886 49 1025 3 836
653 1.0454461448564525 1.8485824778817423 2.6580514425397848 248 237 214 0.88473681916221547 95 1038 17 1021 98 1056
5740 0.33135256541202984 1.9708866439300021 2.1923584065051975 255 221 55 0.47296983043260282 13 768 18 1006 49 1041
654 0.13689380369305004 1.9292797090093552 1.6016570692380994 100 90 27 0.36277656138992265 97 693 17 1034 41 1028 83 776 91 832 9 1036 55 1072 7 892 27 223 85 201 67 235
5741 -0.52627328126797779 2.7861911286619558 1.4076440731188178 79 89 92 0.69450296729193262 13 782 79 685 49 1044
655 0.57500874387581336 2.2084209893286451 2.2085936630685414 229 211 173 0.29084856697122352 95 811 17 1052 41 1076 51 949 90 648 98 869 83 841 46 1298 9 1348 91 1106 55 1256 7 1030 87 1049 26 818 60 810
5742 0.45674313632265467 1.6510959392102318 3.0253707597202593 0 0 0 2.0168063399145741 79 515 49 1048 23 1077
656 -0.81825931637868288 2.2166247782883404 1.3104299750986981 94 69 13 0.14177481483067464 95 1059 17 1067 41 1136 36 587
5743 0.54513695482755375 2.5496271083013382 1.2806115127157569 87 86 81 0.19985631337452806 51 1199 49 1067
657 -0.07778661054449057 2.1928870811605528 1.6217440002070276 102 82 20 0.49785992773934634 95 807 17 1070 9 820
5744 -0.67331581223917236 1.7580785610078069 1.069271728915643 88 50 4 0.38571769505590137 13 991 79 810 49 1099 3 823
658 0.60801257580550017 2.2435321690717771 2.1521475219447406 230 213 174 0.19824799815813918 95 813 17 1073 41 1077 55 1268 7 1053 26 834 64 834 60 825
5745 -0.58837285964821961 1.453957238302243 1.588211422140523 0 0 0 1.1179860929252268 13 949 18 1154 49 1100
660 1.0888898684003379 2.2155367803634194 2.160773892425889 231 216 180 0.064483750525542713 95 825 17 1090 41 1094
5747 0.26136516487852196 1.3450918312652977 1.3794127566040195 255 226 61 0.26622779601612195 13 850 49 1103 3 744
661 1.3070067840383544 2.1831825874839605 2.1756339028328453 230 217 181 0.17372819442527682 95 831 17 1098 41 1072 46 1350
5748 -0.24077092595279104 2.1028434036626975 1.3779771258567179 53 58 80 0.34307580751885869 13 1010 49 1127 3 835
662 -1.2853679049590205 2.4465067866931949 2.0323163725826299 229 215 178 0.093532524188014943 95 1077 17 1125 51 938 30 848
5749 -0.55835709315958559 2.5047332715934671 1.311464701942737 49 54 75 0.19553711819192601 13 976 49 1134 3 846
663 0.55129004894813016 2.3522425152086548 2.0128664015755948 219 203 167 0.044259790392461598 95 1080 17 1133
5750 0.1536704875522891 1.9778421663969248 1.8176435304615488 61 50 38 0.55808201097293197 13 901 49 1136 3 845
664 1.3418328933209853 2.3113387060894452 1.988273539916239 87 87 82 0.54531425187358984 97 996 17 1143
5751 1.11221961947388 1.2573030234507769 1.7008872899976348 0 0 0 0.6688936681328389 13 961 49 1175
665 1.3338825285850997 2.3423653853956901 1.9720467299162185 0 0 0 1.3434409311612485 97 1001 17 1144 18 1080
5752 0.23267472917432191 1.5840592437994709 1.9975884066127387 175 131 48 0.68722454421645152 13 1009 49 1177 3 901 50 603
666 -1.2490982590191346 2.4696353034614362 1.9578090240360433 212 200 167 0.30441397513222701 95 1091 17 1146 41 1157 97 1005 30 642
5753 0.15060538510862442 1.8880507240235676 1.7548053508785046 6 4 3 0.47274426892430688 13 969 49 1178 3 838
668 0.22688572951065275 2.4581874654959202 1.7884336775224881 1 2 4 0.13611614920006992 95 1108 17 1161 41 1161 29 837 98 921 83 898 46 1170
5755 -0.49010018674061362 2.8531413196657245 1.3497363373392508 46 32 27 2.5991051085486432 13 1021 49 1189 50 579 67 601
670 -0.73661330880030185 2.4890660415694326 1.3872316021998017 79 76 68 0.92679397115812434 95 1260 17 1166 41 1169 30 995 51 1182
5757 1.4197291052684748 2.2368154865204071 2.0870242219289254 64 43 33 0.28384215137552699 13 1031 49 1197 3 923
671 -0.32351238060131099 2.7018597228593473 1.5135658356890755 11 13 14 0.13197049259712826 95 1144 17 1197 9 1180
5758 0.58484110931072186 1.0212201314231866 2.1058244734528335 255 228 63 1.3064703391700769 13 996 49 1203 23 1143
672 -0.39411758086358251 2.7801199565323471 1.3537045740984708 27 19 17 0.045694346866607782 95 1153 17 1202 51 564
673 -0.38270340903850769 2.7920250544595664 1.2711540399113437 106 73 53 0.042215440690244854 95 1155 17 1207 41 1204
5760 -0.5444599201643977 1.544078214892147 1.5788740097914993 254 242 80 0.82276180198532201 18 1236 49 1219
674 -0.78292555534444885 2.9756595262747698 1.0911140278729869 94 102 93 0.67572296727974146 95 1302 17 1219 64 959
5761 -0.38728249397302866 2.5386484937474454 1.4012036803976997 60 67 91 1.6756334758194704 13 1063 49 1239 3 972
675 0.20460590825668595 0.97937635747095986 1.7481940287334476 151 129 34 0.41465828482816341 95 1168 97 909 17 1231
5762 0.27506471536773897 2.2926902129416895 1.9335013970221822 44 42 43 1.1135995272498553 13 1057 49 1242 3 963
676 0.25056959770727572 1.1635688133605424 1.8703779755701313 14 14 13 0.087968612400383492 95 1180 17 1245 41 1234
5763 -0.86289845445312419 2.1784971150777417 1.1328435815755293 0 0 0 2.2471696927439884 13 1060 49 1243 3 969
677 0.79861141438091499 1.2122957612541427 1.3900771071313633 100 78 18 0.34272734781129505 95 1183 17 1249 36 749 97 922 30 925
5764 -0.68250174078771741 2.8468952288587577 1.2910667294456311 91 89 79 2.538007578789331 13 1070 79 862 3 978 27 701 50 670 67 703
679 -0.58343369282739221 1.4693862881979394 1.4265433069028579 254 217 82 0.49763396355120648 95 998 17 1254 30 932 36 916
5766 -0.5075680226554925 1.5643169846267682 1.3579417664457878 255 212 60 1.7010598322289452 13 1067 79 851 3 985
680 0.17573564448424786 1.4756634978835705 1.8846684105721321 129 92 20 0.73936079432143398 95 1198 17 1255 41 1244
5767 0.87116989070259954 1.790752427073073 2.8454369134426369 154 147 128 1.8991934884268424 13 1079 49 1254 3 983
681 0.42417352671005787 1.5379029765512839 1.609798322157558 108 87 22 1.0976900126446969 95 1008 17 1260 36 762 51 890
5768 -0.37640936774282602 1.6803110858422885 1.2522408068494968 255 226 59 0.5125527716632301 91 561 46 109 9 758 79 23 13 719 49 781 87 947 94 818 40 842 24 718 15 659 93 703 18 952 70 573 3 616 50 10 67 14 42 449
682 -0.39018624814423225 1.704109842026277 1.2239365239808442 32 41 60 0.19948430578804566 95 1213 17 1271 41 1256 36 760 51 1048 30 772 77 491 29 476 58 479
5769 -0.11114299951376652 2.0435442059673812 1.4763126253549748 7 9 13 1.2383823097916418 13 1043 18 1207 95 1409 17 1511 83 1213 46 1567 9 1588 55 1509 7 1328 64 1204 87 1376 26 1057 26 1098 60 1068 24 1111 53 940 15 934 93 1091 82 800 88 759 44 259 88 606 49 1207 3 937 23 1115
683 -0.83055075278410495 1.7563209482325519 1.0533021342807511 104 90 23 0.78942321491838929 95 1211 17 1278 51 881 90 557 98 567 83 528 91 546 46 970 9 733 7 651 64 1044 55 1213 88 510
5770 0.53796318580943636 1.7859195688984657 2.8594406559375543 227 213 176 0.27023441147439642 46 176 9 233 78 78 82 353 54 397 4 91 43 397 59 58 32 459 11 498 92 628 24 477 93 459 76 592 25 578 45 771 47 77 86 673 100 776 80 598 39 658 28 628 31 641 57 496 18 562 49 212 23 589 84 564 42 429
684 0.11013960673617858 1.7078909754624012 1.4381749300352105 92 86 24 1.377263553340804 29 945 95 1216 17 1280 41 1258 55 1216 7 877 64 803 94 706 40 871 87 977 26 656 60 657 46 764 53 459 88 449 68 329 33 587 48 518 81 559
685 -0.27259460687556397 1.9035117234048011 1.4816873312086318 119 95 25 1.0930877763111051 95 1034 17 1296 41 724 51 1078 30 549 90 1001
686 -0.35988325963611512 2.0460353283572044 1.4352673163709073 67 51 8 0.74402575078732491 29 974 17 1302 41 1277 55 1401
687 0.85132795496588898 2.0650591943644905 2.3717552278521539 231 217 181 0.71991965452783035 95 1242 17 1303 41 1271 36 828 30 834 55 1237 7 1011 64 1014 87 1089 94 958 40 967 24 1064 15 985 93 1057 18 1139 70 879 49 1070 13 802 3 713 85 276 23 1082 84 622 42 697 99 878 75 846
688 0.64889308430551662 2.1355501643100894 2.2568778882597762 232 216 178 0.47919979379440436 95 1245 17 1307 41 1273 51 943 36 836 30 837 90 855 98 850 83 829 91 887 79 398 27 140
689 0.73024758660752476 2.1057470879222748 2.3298178342544444 231 216 179 0.30062337128378741 95 1241 17 1308 51 1103 90 1029 98 1063 83 1039
5776 -0.76803131328230068 1.828093420776232 1.0654129554729954 32 27 27 0.21449115007101036 49 12 3 17 27 363 50 170 67 194
690 1.3728408598619755 2.1615140236990031 2.2147789840341447 237 220 183 0.54718822574789372 29 963 17 1311 46 1351 9 1515 55 1409 7 1231 87 1288 94 1161 26 998 60 999 24 1145 53 878 15 1064 93 1117 92 913
5777 -0.72070451204876806 1.8815056466935971 1.151874884334001 100 51 3 0.081701401421662198 13 27 49 27 3 22
691 1.3819614984470472 2.1226837451735125 2.1278655987718036 0 0 0 2.1663548324672899 29 1087 41 1402 51 1180 83 1144 64 1196 33 760
5778 -0.72070451204876806 1.8815056466935971 1.151874884334001 100 51 3 0.081701401421662198 13 28 49 28 3 23
5779 -0.53505520389135275 2.4702242171682625 1.3250476966511067 27 28 36 0.15542173228513576 13 111 79 294 3 93 27 239 85 377 50 217 67 252
694 -0.58580043104617852 2.6491323211352906 1.4204213852929111 46 54 75 1.2377260005835062 97 1163 17 1362 41 1331 51 1232 30 1112 90 1166 98 1222 83 1196 91 1189 36 882 46 1499 9 1494 79 744 13 978 49 1033 27 647 50 618 67 593
5781 -0.47249491904624985 2.453480617935472 1.3530440411983362 26 25 32 0.26533266626409496 79 306 83 646 90 246 27 241 3 96 30 274 50 220 67 264 13 112 36 285 85 382
695 0.09308100228220878 2.7347657680685575 1.4769570627192747 87 86 81 0.26134892682624639 97 1175 17 1369 33 793
5782 -0.44118821107986789 2.5921183804252919 1.4593382772252499 61 70 94 0.2445661651176064 13 530 3 114 27 289 85 263 50 96 67 121
696 0.18336215470919703 0.93092696676133369 1.7652513112830408 0 0 0 0.61771760140759291 95 1306 17 1384 30 917
5783 -0.2836004710835805 2.4350450170906885 1.5564963216875078 52 30 1 0.21221750563776562 13 130 3 117 50 236 79 319 67 430
697 -0.03742539999287825 1.0909480523502468 1.7551718132294729 0 0 0 1.1444483181942371 95 1174 17 1385 41 1231 97 917 51 1030 36 902 30 919 90 964 98 991 83 958 46 1427 9 1453 55 1362 7 1155 64 975 87 1207 94 1072 40 1078 60 1029 58 566
5784 0.062434899656808138 2.3675490340885341 1.6351984057008702 9 8 9 0.11949784755886066 13 142 3 130
698 0.91787621709772838 1.1662224993874148 1.5149717803857494 0 0 0 1.4009739968283339 95 1311 17 1388 41 1439 90 1144
5785 0.17278688071828566 2.3170479874907994 1.6982184107605778 25 26 36 0.096738699259258112 13 175 3 132
699 0.03743198141746916 1.3090095912396766 1.8745486137744667 130 101 27 1.0072526406350613 97 1091 17 1390 30 939 55 1366 46 1441
5786 0.35425874369337051 2.3022740576878196 1.7679189688394357 32 29 34 0.059187941535957578 13 225 3 156
700 -0.5536492267121792 1.4317542150528015 1.439249788267928 0 0 0 0.47465958434637062 95 1190 97 1195 17 1392 41 1365 51 860 30 933 90 972
5787 0.16656225997768681 1.8081278915084875 1.6483594344078123 82 44 4 0.21153930211135563 13 478 79 267 3 384
701 -0.49994104181319943 1.4603026007246489 1.4377946911486521 254 240 79 1.1444620858671473 95 1365 17 1395 41 1243 36 917 30 934 90 973 55 1185
5788 -0.15848756173234482 2.0563522332543465 1.4358513032302975 100 116 151 0.31300736097324799 49 511 3 390 23 448
702 -0.20163040072748042 1.3956904825527232 1.8901359470708734 0 0 0 0.70400855588568678 97 1197 17 1397 51 1151 36 1002 30 943 98 1123
703 -0.56285493451728164 1.9982833540769753 1.4545794396624518 254 219 62 0.36850910407534498 95 1373 17 1422 46 1534
5790 -0.32241090503472442 2.2404219898700348 1.4960301261815414 2 1 3 0.50661828861224778 13 96 79 285 3 408 27 396 85 466 50 386 67 411
704 1.2264475205529275 1.9448478683966164 2.5130141592774184 0 0 0 1.0992309317057773 29 1082 95 1376 17 1426 41 1489 51 1101 36 1074 30 1046 90 1099 98 1220 79 797 77 642
705 -0.6879960167657132 2.0056456262462996 1.2421530675164747 148 111 29 0.67981450229149709 95 1231 17 1427 41 1405
5792 -0.82872782395699041 2.4413652347456924 1.2036283910865762 70 85 115 0.37484833281239743 79 732 3 661 27 586 85 529 50 561 67 582
706 -0.66862558458702481 2.1121858230323336 1.3147854421688101 243 198 62 0.46348618600546443 95 1335 17 1428 41 1281
5793 -0.38577153513092821 1.6611945373625394 1.3566214747177097 253 209 59 0.51880947819459222 49 989 3 756 50 19 13 722 67 24
707 0.14969191000324869 2.1145996250077088 1.7219277675028852 14 7 4 0.48291636305996449 95 1383 17 1432 41 1412
5794 -0.7830205719205402 2.2042464878478674 1.2225472543867388 135 120 44 0.76239903337451809 13 879 3 768 50 470 67 573
709 1.0538046033712019 1.1978789292342253 1.6898854790101232 0 0 0 0.94328980760394676 95 1314 17 1456 41 1360
5796 -0.69336509498387566 2.9379269836473636 1.2442213151798789 49 33 27 1.2377474471025363 79 691 3 812 27 614
710 -0.65467835719069978 1.4823552799993931 1.2880771021108246 252 228 77 0.92618617621043109 95 1193 17 1461 41 1447 46 1548
5797 -0.1964283598519739 2.7318439009202038 1.365841194675816 71 49 39 1.2303012145071552 13 1022 3 857 27 612 67 537
712 -0.99867002980702768 1.8510237422703499 1.5951665128253654 123 111 76 0.80894239629954556 95 1407 17 1474 64 1036
713 0.019469658284952868 1.8589432163598374 1.6547925446111569 72 53 9 0.22874844259421603 95 1372 17 1475 51 1224 36 1067 30 1101
5800 0.52472922679805301 1.7625996591880273 2.8230630576095241 98 66 48 1.2083799355263525 13 1019 49 1209 3 918
738 -0.43864574763032776 1.9048067683293792 0.82995186444760927 255 221 68 2.1230501112600284 95 181 17 735
739 0.58398994803948578 1.1969634440745796 1.3902497765892656 133 118 33 0.2774618631122841 95 624 97 40 41 23 51 27 36 29 30 21 90 17
752 -0.91249315036184464 2.0669548280787002 1.5272781702079536 221 178 48 0.33290847656227146 17 271 29 207 41 287 64 891 5 799 78 915 54 971 4 975 59 755 21 780
753 -0.36596075831778574 2.0819168666620316 1.3129401426502854 141 110 28 0.14817195380476753 17 302 41 289 55 331 46 341 64 307 78 201
760 -1.1487870457403906 2.5104759700479651 1.9021505246290775 85 83 73 0.43878640736136248 17 453 41 430 64 361
764 -0.23983459240106075 2.690443008456477 1.5066799265700275 68 78 79 0.079215773842143483 17 552 41 481 46 633
772 1.1352385273743435 2.0207323473639613 2.4475023605962072 232 218 181 0.34520572273130012 17 800 41 756 55 1082 64 775 15 890 24 961
779 -1.0142393993360852 2.6615954805442752 1.5984779910444396 121 121 111 0.047217905426962949 17 905 95 906 41 907
798 0.29578760802653131 2.5367508876667406 1.6524468603406559 41 30 24 0.40548961708370806 17 1347 41 1307 55 1339 64 1053 26 911 87 693 82 801
812 -1.0864796123979263 2.6693145662123845 1.6054209013200988 121 122 114 0.88355367415531649 17 1441 41 1468 51 1111 36 1034 30 1002 90 1041 55 1419 64 1220 60 1004 82 1013 34 1098 54 1113 43 991 59 1138 76 1110 25 1120
827 0.79499864512280316 1.7009207477525428 2.9746695059870691 234 220 184 0.14034563296052247 97 179 51 113 90 113
833 0.53149029972061212 2.1860522098683459 2.249063183667217 238 221 182 0.0012181017439448489 17 332 51 249
862 0.46494352270945044 2.2487648712417503 1.7860306822170806 220 203 166 0.77219586676310192 51 947 90 1035 98 1155 83 1136
865 -0.626239990276381 1.4780854888297161 1.1795921341889146 0 0 0 1.1701176080962212 29 1059 51 1037
866 0.4225567629414565 1.3914707502547337 1.5958990255005543 140 121 36 0.32690353216302004 17 1399 51 1040 90 788 46 1451
868 -0.38889751337790185 1.7049437176761275 1.2213379741956565 24 27 39 0.10918017792713265 41 1257 51 1047 30 773 90 989
870 1.0162030465895209 2.3180407162402648 1.9560342539375342 38 22 18 0.51290130763075104 97 1133 51 1116 36 849 30 866 90 909 83 1065 91 1139 46 1506 9 1514 79 602 77 157 58 128 13 940 49 1080
875 0.25569525786348279 2.294140512758148 1.6991354533479215 55 62 84 0.33652129645510864 97 1131 51 1179 30 1052 36 974 90 1105 98 1154 83 1135 91 1191 9 1496 13 983
885 -0.40073419587716846 1.9872714038587007 1.5037391435065801 101 77 16 1.2209417311393711 51 1311 90 1245 85 651
888 0.83242096622213602 1.9649992474250324 4.118091118126431 0 0 0 0.56711239549650905 17 216 95 261
895 -0.0038415429912025123 1.8435935365424778 1.7219675201338036 50 21 0 0.42850718909569935 51 82 36 101 30 86
898 1.5600976007694241 1.9543225939318842 3.6306730435775689 128 118 96 2.4199926337069981 97 296 36 202 30 198
919 0.48596402479968986 1.2268766271749096 1.4827862485088814 120 103 40 0.26052022060323371 97 42 36 507 30 500
940 0.38799340986587294 2.3208215270220593 1.7492151993254967 3 3 3 2.027316535072559 97 992 36 842 30 844 51 957 90 871 98 882 95 841 46 881 55 864
949 0.45132463461996775 1.4952988517541648 1.614287595426722 106 83 21 1.4717893122844845 51 1158 95 1199 36 1006 30 1024 85 509
950 -0.57051029932423303 2.4464112631390011 1.3581511666184756 12 11 12 0.90841528522657822 97 1272 36 1024 30 1053 77 746
962 -0.57184166804813163 1.9762031722250468 1.4726556033893636 242 198 62 0.37466307357876066 51 1273 36 1123 90 1199 98 1255 83 1232
963 0.76449210761066166 2.4245815313223598 1.8597557956107618 38 26 22 0.63485130293307368 51 1279 36 1125 30 1142 98 1279 13 1058 3 953
964 -1.0438998177500427 1.9166481997035678 1.4231770140174815 0 0 0 0.75193576607239931 97 1335 36 1141 30 1154
965 0.88117246676471905 1.2744913000644349 1.5748515806130652 105 91 26 0.32116079192042357 95 1468 36 1151
1001 0.42532092137854183 1.3239927672917877 1.60187122206411 101 80 16 0.087636509493297099 36 516 30 509 55 697
1061 0.098496657894580342 2.0021630985646897 1.5717698535857696 16 14 16 0.28560548419043674 51 1089 30 977 90 1012 77 623 58 684
2537 -0.72211908748375975 1.6303889697497027 1.1858032107549841 170 120 28 0.055550644791715544 24 504 93 478 70 229
2538 0.5768655040114995 1.8129545187252682 2.8120814740647435 230 216 179 0.68176838848079913 24 650 93 627 18 561 23 798 42 554 75 707
2539 0.5767329468577671 1.7990918694943869 2.8461399106135916 125 117 102 0.32718815815958779 24 484 93 628 49 233
2540 0.80681416184986721 1.0629961963179633 2.008625062327563 255 228 64 0.059796914608573108 40 875 93 768 94 855
2541 0.88358060471139643 2.3445606833766401 1.9347177606318964 106 72 56 0.64857140084418563 15 812 93 911 70 688
2542 0.28911949583444085 0.72332006677422833 1.8125934817544556 0 0 0 0.69895816668973632 24 1088 93 996 70 895
2545 0.89650185779985359 2.2859913952720126 1.9465221488895674 236 214 170 1.3709034368606534 15 984 93 1059 23 958
2546 -0.68099041361400503 1.4748075149186599 1.5883293026444523 0 0 0 1.2510101728096306 24 1180 93 1150 70 957
2547 -0.57688945665303548 2.9963842151528559 1.1165024681815372 0 0 0 1.4542602374902902 15 1112 26 1133 93 1155 78 1142 4 1185 88 1008
2548 0.60463319903959301 0.96313292265817496 2.1771580230372636 155 107 28 1.3720018593098946 24 1217 93 1180 70 992
2549 -0.61725779198872155 1.5903954226485131 1.2841087582214612 255 231 66 0.18105331180239878 15 1138 93 1183 70 999
2550 0.56472217521953538 2.3810886983385808 1.9538135095103593 215 199 162 1.1587533098471052 24 1220 93 1185 70 997 23 1196
2551 0.26737344637462696 0.88489576501050315 1.9231863498056299 127 102 24 0.21129612684569699 53 17 5 4
2552 0.46728616024703945 1.0897409428470264 1.4005524444841793 187 197 223 0.31615766022500064 55 34 82 45 34 352
2553 0.26086214936173097 1.7987431845784212 2.8137685125142542 23 13 10 0.13410862867600359 53 35 82 78 5 92 34 96 78 97
