# 3D point list with one line of data per point:
#   POINT3D_ID, X, Y, Z, R, G, B, ERROR, TRACK[] as (IMAGE_ID, POINT2D_IDX)
# Number of points: 381, mean track length: 5.043363499245852
10181 -0.68341546539415454 1.5527177047631242 2.6705595286237149 46 83 40 0.69136717618046073 26 2377 53 2178 93 2144 18 2090
10179 -0.21951475692848177 0.33165234274964217 2.1458643929203545 87 102 61 0.49436880380092951 79 2353 53 2143 93 2112 18 2065
10178 -0.80383006708148874 1.1978686745135889 2.6257282730056697 101 167 76 1.2136540216104039 79 2335 53 2132 93 2098 18 2045
10177 0.07518065056338441 0.56776043664490805 2.3717419823624302 59 89 50 0.31520278324251078 65 2177 53 2116
10176 -0.37772734586945544 0.42496363117922742 3.60292101591785 172 157 137 0.69327331774592049 65 2207 53 2086 93 2053 18 2058 13 1525 71 1497 96 1479 22 1443 99 1088
10175 -0.98919491781696833 1.2035919976061609 2.8392257334146134 255 237 191 0.75225369794220109 65 2150 53 2084 13 1520
10174 0.18697825387285691 1.9587995675342362 2.9315502875587987 0 0 0 0.57820653287922485 79 2286 53 2082 93 2046 18 1942
10172 -0.84182440796489311 1.2597500977489671 2.6321723713643652 83 150 72 0.93268020433522436 79 2281 53 2073 93 2042 18 1995
10171 0.15722298947028968 0.55439207999268103 2.1377486245646811 118 126 88 0.12278611112915674 65 2101 53 2048 93 2015 18 1961
10170 0.252140458121351 0.47108480593250479 1.8333389194954826 62 110 58 0.40733268881704865 65 2098 53 2042 93 1936 18 1877
10169 0.25925034637977729 0.43174971066018619 1.7849677732086338 59 115 61 0.8416768566585876 65 2156 53 2041 93 2011 18 1956
10168 -0.94908090899625752 1.2626126963825899 2.6863412443874783 52 95 47 0.40642864319661465 65 2082 53 2015 18 1940
10167 -0.54431932569497821 1.404021506416353 2.5523303532644155 90 170 86 0.43256320600366693 79 2278 53 2005 93 1967 18 1924
10166 -0.66937233213734748 1.2059873402364094 2.5879391857715177 196 214 118 0.65783892335720195 79 2276 53 2004 18 1923 93 1973
10165 -0.43686499656265421 0.45995197103803975 2.9315098454221049 68 62 53 0.36034145179010113 65 2066 53 2001 93 1975 18 1993
10164 -0.068619951870839663 0.39915446243068869 2.0505631790629124 39 69 34 0.31422621402168199 64 2055 53 1972 18 1887
10163 0.21922352739034467 0.56502967355843403 2.0140101532408288 41 72 35 0.47575155471470676 65 2021 53 1971 93 1941 18 1885
10162 0.45501055560010828 0.43090864399355538 1.6111809534456625 0 0 0 0.024933076751058707 26 2155 53 1960
10161 -1.0144657672622954 1.3156469378893163 3.431523301753185 0 0 0 0.73131263965953375 60 2154 53 1957
10159 -0.88948049368447868 1.3379234249418597 2.6900222335516695 43 76 35 0.14154322105971487 65 2000 79 2144 53 1937
10157 -0.82690713959423157 0.9191851727052851 2.601281680460299 128 101 75 0.87307329520402688 79 2124 53 1919 93 1776 65 1850 18 1732
10156 -0.35273838696659432 0.36182373835188969 2.6758726798453947 94 91 45 0.90126325774110327 65 1956 53 1901 93 1873
10155 0.29201411603614519 1.4518701412533477 2.4621169870290749 239 225 222 0.099005273396522778 65 1950 53 1900 93 1872
10153 0.49644528586157355 0.71922407517559284 2.3087272837730053 70 63 55 0.13047836291604489 65 1932 53 1888 18 1806
10151 0.18292363265343006 0.54099630621680306 2.0511077034478058 185 187 140 0.2334732054570017 7 1724 53 1879 93 1850 18 1798 80 1483 75 1409
10150 0.13912672727055592 0.4375146349139129 1.8966308969286232 108 132 81 0.9044868987886584 27 1829 65 1909 53 1867
10149 -0.07361964490316622 0.26942651119794397 1.8422468983724987 150 152 102 0.47757032840734215 65 1908 85 2260 53 1864 52 1727
10148 0.13816354986169371 2.007091223680586 3.3253979598149863 95 88 78 0.37446942781613607 65 1883 53 1858 93 1826 13 1340 71 1324
10147 -0.64241848756113507 1.6520737526223261 2.8234666663805532 74 50 28 0.38216927713657012 79 1905 53 1846 93 1814 18 1772
10146 -0.77858975047911549 1.4569799500023017 2.6669592919139378 147 148 108 0.25004465824462557 20 1949 53 1827 93 1805
10145 -0.86541460671258552 1.2343630483184223 2.6422766687869892 239 231 137 0.11593487665053333 79 2032 53 1817 93 1801 18 1750 65 1865
10144 -0.40932632986284229 1.6612828131350978 2.5634141035035669 241 237 159 0.4367438618801569 79 2134 53 1806 93 1788
10143 -0.51430148201338222 1.2588618965168774 2.5560665085022536 255 255 157 0.16200051924686371 65 1835 53 1801
10142 0.023924202424473 0.56170993798022795 2.5496383849933908 178 182 195 0.15263247172081554 79 1973 53 1775 93 1749
10141 -0.059055710267025059 0.49283294839993302 2.3183199226149087 50 83 45 0.038340762330461471 65 1777 53 1767
10139 0.19435546767059098 0.59940980523804555 2.2708530751506042 149 153 107 0.48353260118197861 65 1770 53 1764
10137 0.18427756589536912 0.59360058897273671 2.1985636013780483 168 173 127 0.16964563830546675 65 1766 53 1760 93 1528 18 1678
10136 -0.26781040890748264 0.2508959035870898 2.2237876336753546 93 103 83 0.56855755415987363 79 2089 53 1758 93 1725 65 1575 18 1476
10134 0.084510799329070477 0.50132208483568741 2.1102643095570688 58 82 48 0.10211735470450839 65 1759 53 1753
10133 -0.02628483554997621 0.45935521354327885 2.1502207222157539 160 162 115 0.10163087928811879 27 1723 53 1752 93 1527 18 1474
10132 -0.10148843432752176 0.40489064866597152 2.1079432318045974 34 67 32 0.41445491705111021 26 1954 27 1720 64 1800 100 2063 53 1751 20 1885 37 2202 59 2195 85 2112 93 1723 18 1676
10130 0.081783862050173864 0.48612800668295536 2.0569212723888368 44 74 38 0.27182684723688194 79 1938 53 1746 93 1719
10128 -1.0331037972924639 1.3580711024982093 3.5232698606705006 0 0 0 0.38363978416601691 53 1729 18 1650
10127 -0.41572841281440986 1.7863689519704535 2.8397674097624699 113 90 67 0.53947194723513126 79 1898 53 1714 93 1665 18 1617
10126 -0.98632909436757255 1.3106107499212789 2.8382753453333827 116 90 66 0.20754043055942151 79 1901 53 1708 18 1634
10125 -0.94539618036207063 1.290178626759469 2.7724726046336472 138 137 96 0.15479836060577556 20 1814 53 1695
10122 -0.82753687852399249 1.4122748988770049 2.6940906527727342 45 81 39 0.20531182102951551 79 1875 53 1684 93 1642 18 1603
10121 -0.94738199382527166 1.2872962025968848 2.7463789962208049 50 97 49 0.25043642585470083 20 1800 65 1485 79 1885 53 1682 93 1659 18 1610
10120 -0.94548902056106354 1.2828921702757081 2.7245425676574118 142 141 95 0.16723119319819135 79 1642 53 1681 93 1645 65 1713 18 1609
10119 0.14478024861040248 1.9238290145251675 2.82094289688072 243 238 233 0.37948461491930241 65 1413 53 1677 93 1423 18 1002
10118 0.0036547937263019851 1.8517423977530418 2.7899115873196489 229 235 253 0.63779973676052282 65 1054 79 2045 53 1676 93 1635 18 1367
10117 -0.59951478606208519 1.5674531589455167 2.5948688540400413 84 157 74 0.3783101602269674 79 1845 53 1655 93 1401 18 1571
10116 -0.39425028545251678 1.6361676186501084 2.5562332310872948 117 218 112 0.92750183138146935 65 1845 53 1643 93 1611
10115 -0.81796688955488239 1.0059922503440006 2.6599991148026056 47 34 20 0.55110575481700719 79 2014 53 1637 26 1999
10114 -0.39205867564996966 0.37759705000326238 2.7971167765536795 95 72 48 0.26115942001319337 79 1782 53 1617 93 1771 18 1718
10112 0.52864798141709435 0.87494160963455059 2.6798699228461702 243 237 215 0.56780717744921227 65 1296 53 1607 93 1575 18 1523
10111 0.55429728766255004 0.84633089414099039 2.6403146523534526 245 241 230 0.90010837473393035 79 1774 53 1602 93 1568 18 1518
10110 -0.74396655444848425 0.76049365647435674 2.2148090470231461 100 78 55 0.80940168407672231 65 1794 53 1582 52 1481 33 1499 19 1312
10109 0.25943396407483876 0.66597433291704911 2.2977462969551063 131 136 96 0.18146476067193845 79 1753 53 1578 18 1493 93 1546
10107 0.49232119106781752 0.76127442048313487 2.1735094914672088 101 77 52 1.460837343999783 65 1557 53 1563 18 1210 52 1397 19 1263 33 1557
10106 0.49693524954471402 0.75762134973974515 2.1733109356498557 101 77 52 1.0645375052211519 65 1558 79 1945 53 1562
10105 0.32272869268947935 0.65111696983177436 2.1563665100037532 49 86 42 0.3485550498646402 79 1733 53 1561 93 1258
10103 0.18123827071837817 0.56747331420386105 2.1294840477388011 144 148 106 0.099428390973306635 65 1555 53 1554 18 1475 93 1523
10100 0.48542987888337613 0.52234719044252109 1.8421824166257503 188 223 150 0.23903880324066407 65 1528 53 1526 93 1204
10099 -0.0038857683231248667 0.33770254220642887 1.8345222170267752 183 175 122 0.22804413270365542 79 1704 53 1521
10098 -0.40882506007256314 0.48619314966311189 3.6063259485133612 120 115 113 0.21408297085650546 79 1656 53 1501 93 1169 18 1105
10097 -1.00243918973752 1.3331392883816835 2.9298297732813308 87 64 41 0.58979947309432723 79 1679 53 1499 93 1482 65 1509 18 1432
10096 -0.98665472905688856 1.1825458552775445 2.9028001333188831 103 78 53 0.63137499458916957 65 1500 53 1489 93 1677 18 1632
10095 -0.58238652439256777 1.6868615357419878 2.8379215331100252 69 53 37 0.15154292424122157 79 1672 53 1488 93 1475 18 1421
10094 -0.67124000012686968 1.6146449141821801 2.8455802884519055 192 188 192 0.29337191894651443 65 1131 53 1485 93 1473 18 1419
10093 -0.67124000012686968 1.6146449141821801 2.8455802884519055 192 188 192 0.29337191894651443 65 1130 53 1484 93 1472 18 1418
10092 -0.69761040049615097 1.5892532775603219 2.8515643577146372 210 205 204 0.75587968844851072 79 1254 53 1483 18 1417 65 1138 13 771
10091 -0.76216186482980142 1.5240770152351075 2.8479325674155875 181 178 182 0.35754681874203614 65 1137 53 1481 93 1136
10090 -0.91823128073618587 1.0379378535458317 2.9461096148121331 84 61 39 0.62954138554964423 65 649 53 1477 93 1124 18 1424 19 552 96 796 22 761 99 567
10089 -0.85908050615175502 1.379353798122374 2.7597082688711283 51 110 61 0.63025193385838085 20 1533 53 1469 93 1457
10088 -0.8973382098680337 1.3423354818549462 2.7550698806130649 134 140 100 0.2931659261816093 65 1129 53 1468
10086 0.087715398177581519 1.8981756262218361 2.8131279206489821 221 225 242 0.31025915228273898 79 1868 53 1449 93 1422 18 1368
10085 -0.33637610801904877 1.7642690099472973 2.6603330620811527 80 155 85 0.21601796048643215 79 1622 53 1430 18 998
10084 -0.80787174209256818 1.3113615725500458 2.623521745725466 245 228 141 0.12840477873496225 65 1456 53 1419
10081 -0.90347239246782673 1.0077331445326745 2.7484893316383894 69 74 56 0.26373759524108953 65 1086 79 1592 53 1414 93 1428 18 1011
10080 -0.38737113016164237 0.42046548417292429 2.8401949526509878 85 71 31 0.37618504642659023 65 1363 53 1346 93 979 18 1297 19 864 13 669 71 938 96 959
10079 0.32268938825147275 1.5704359468101472 2.503274071474467 253 243 220 0.10470954256118266 65 1314 53 1336 18 1276
10078 -0.37319690228729413 0.35401199990777804 2.5930514480611615 192 192 204 0.27684862571495356 65 1316 53 1317 93 924
10077 0.48389599993901672 0.816940345774263 2.5545435189068688 194 202 219 0.2334220504331993 65 862 53 1313 93 914 18 846
10076 -0.053937850187750214 0.50294734305333899 2.354168783899 153 160 119 0.083007685702137707 20 1349 53 1294
10075 0.31165005884937769 1.2665061662017942 2.1722687277476158 174 149 113 0.2129459301581158 65 1254 79 969 53 1289 93 1280 18 1240
10074 -0.0022584560812729656 0.52749715279169462 2.3259939076038605 44 80 40 0.14458336555382018 65 1260 53 1283 93 1277 18 1235
10071 -0.25504630648605048 0.30114107669762008 2.2432487619207144 130 131 89 0.21631008694692341 65 1242 53 1267 19 1066
10069 -0.0052396888263811746 0.49441299115278964 2.2111903747539761 40 70 34 0.17413199337317042 27 1239 79 1384 53 1260 26 1401
10067 -0.15812346242751749 0.40190558295367207 2.1928595937710402 38 71 36 0.15579226627355663 20 1318 53 1256 93 1255 65 1231 18 1208
10066 -0.15691425395786279 0.40140764395680012 2.1933065541145047 38 71 36 0.13896023496166937 65 1232 53 1255 93 1254 79 1381 18 1207
10065 0.56001857074659289 0.72811854893644135 2.1546667661761747 215 175 143 2.0708374937228431 79 891 53 1249 18 767
10058 0.042818694962078255 0.4592858652056081 2.0234138962083081 102 117 83 0.05964744564388702 76 1407 53 1230
10054 -0.076692792379588676 0.33832481817595261 1.934472604836128 183 180 130 0.13662182587206748 37 1453 79 1337 53 1211 93 1226 100 1397 18 729
10052 0.29573453022026563 0.51209475885149658 1.8696657396503793 190 190 141 0.13458117353864321 79 1333 53 1205 75 878
10051 0.0086022473463634921 0.2715358902227239 1.7772431100262871 195 184 129 0.14744027738642515 65 1174 53 1190 93 745
10050 0.079179018364041884 0.20900605262515418 1.6267998054120125 99 87 72 0.2817275627823167 65 1520 53 1179 93 1188 18 1119 13 826
10048 -0.93652739296604282 1.3038441619531922 2.7732832622750281 50 102 55 0.17174724758662788 20 1120 65 652 53 1111
10047 0.14530359826972175 1.9309989559591163 2.8973030368743431 89 65 42 0.24022188246848475 65 530 79 1217 53 1102 93 604 18 536
10046 -0.28192021930183364 1.8056264453129438 2.7526703814140547 186 177 177 0.1703864216262497 79 1213 53 1098 93 599
10042 -0.10807161685142641 1.7893341153993099 2.6059362104144159 0 0 0 0.18426351218613826 20 549 26 1133
10041 -0.92176548691138016 1.3115384761954922 2.7032324764971221 150 145 103 0.10140699940109398 79 1196 53 1079 93 1095
10040 -0.96250644152465736 1.1753155666068684 2.761154058704987 61 101 41 0.11848464336498266 65 1128 53 1077 18 1043
10039 -0.81839610731350942 1.4150780629293842 2.6815620169475856 103 116 74 0.075480619664533372 26 1144 53 1060 93 1074
10038 -0.83741300191898349 1.3873294938965746 2.6662132337683073 40 68 32 0.16991307247051268 65 1118 53 1058 93 1073 18 1017
10037 -0.85452236966667239 1.3744667434360884 2.6684966995381054 42 72 34 0.080833513962183579 65 1117 53 1056
10036 -0.22037369740032586 1.781754376808488 2.6646151377009595 198 217 167 0.16907988709380462 79 1161 53 1044
10035 -0.43833771704229652 1.7118282698503151 2.6344726852246398 56 100 51 0.11177530213949444 20 1106 53 1042
10034 -0.77502436303242916 1.4195216628085885 2.6264516462136918 73 134 68 0.30589598957248587 65 1096 53 1033 93 1056 18 993
10033 0.048852751788442207 0.31903785644967564 1.7783412075382168 0 0 0 0.088160593501482948 35 878 74 845
10028 0.090173868316947167 0.96380228082933272 2.9964647973832217 89 155 80 1.0435144782407098 61 492 53 1013
10027 -0.8156403703726125 1.2704140158547923 2.6209824712105605 102 156 78 0.1389849953746099 79 1598 53 1011
10026 -0.81436510591689037 1.2697711670003111 2.6224524043304736 102 156 78 0.19362124363114791 79 1597 53 1010 93 1396 18 1355
10025 0.048220202789563543 0.87116116227722684 2.9799610354130621 255 249 147 0.20127132682169113 61 1142 53 1008
10024 -0.44386571003845243 0.44791370819967063 3.0223716261826841 190 165 128 0.36264747375279582 79 486 53 1004 93 1048 18 984
10023 -0.58853300479289983 1.428174582505908 2.5674036786194807 255 244 148 0.093818184224047071 65 1051 53 994 93 1023 18 950
10021 0.42936699116084215 0.73071292137604105 2.4569502354197916 126 162 114 0.17279724530130172 79 968 53 877 18 830
10020 0.49035098522868814 0.74373956131477614 2.425082424892671 122 130 146 0.15502569403237401 79 967 53 868 93 895
10018 0.10408303431313186 0.5807961469335482 2.3296253806372578 40 72 36 0.0711495825429104 79 945 53 837
10016 0.49241247845081065 0.75425769853206714 2.2917005410438596 133 136 141 0.60040238168792515 65 1224 79 921 53 820 93 1537
10013 -0.010626623346710858 0.51033796698372136 2.2735637535191802 44 77 39 0.047861925934369193 26 900 53 814
10010 -0.23923222502259256 0.3261307001127694 2.2258829763294123 46 86 41 0.090973784632892685 65 1244 53 798 93 1263 18 1218
10009 -0.43169279942641908 0.73971847492271137 2.0147242008898951 162 163 116 0.62476122051631244 62 799 53 791
10006 0.065964421981972388 0.48386949187560729 2.0545196855980365 111 122 85 0.14077121550878385 76 866 53 783
10004 -0.57097680365970271 1.210643653288251 2.5670267396743807 0 0 0 0.105742312126686 33 919 34 1200 43 1266
10000 0.33319778918256299 0.56098032580016399 1.9337922470264737 199 202 152 0.2036557953175438 79 1340 53 768
9999 0.012232644056573915 0.40461842195785391 1.9520593489073084 42 74 37 0.1117119509669649 7 688 53 767 80 599 75 45
9998 0.025351802805001548 0.3976810761357043 1.9189133155218761 44 77 40 0.29459667294341252 27 75 53 765
9994 -0.21707009509098321 0.1440034459107572 1.8990239751453351 44 91 50 0.15731150967836768 60 844 53 745
9993 0.08186241511650999 0.38165639095995629 1.8398419931460326 52 95 50 0.31280942886927482 64 1215 53 739 93 762
9991 0.49519474773730288 0.47101946511624243 1.7536620354498162 134 139 154 0.096932346988042734 65 50 53 726
9990 0.1100757170345019 0.34209978987660267 1.7561591515763235 144 156 103 0.29444770250696295 60 1336 53 722
9989 0.33332663439926324 0.3530178484259589 1.6169318436355273 108 86 63 0.14179628231704217 65 708 53 705 93 28 18 28
9988 -1.0307361286093877 1.2564162219922119 2.9848403790113398 87 64 41 0.26117786725094583 65 683 53 667 18 648
9987 -1.0128350745217889 1.3015703884309926 2.915070191747009 62 43 27 0.23019557268318627 65 677 53 661 18 1099 93 1165
9986 -0.67746391204091805 1.6133430853970856 2.857816642947125 67 57 45 0.11790694448457459 65 658 53 649 93 677 18 607
9984 -0.72693232285974596 1.5192467328545458 2.7023273427342072 152 148 109 0.092084871220091236 20 614 53 565 93 626
9983 -0.79797981416914121 1.4428246162866543 2.693497773314756 158 153 111 0.15095801033557218 20 561 53 554 93 576 18 547
9982 -0.87123843305407811 1.3711886502114679 2.7064603752317118 47 85 42 0.17727038036900389 79 645 53 553 93 1096
9981 -0.5240203951499729 1.6850714572766379 2.6734626398558845 64 113 62 0.10078122936203043 27 487 53 537 93 588
9980 -0.81860578414059815 1.4165802784349242 2.6931237182320378 46 84 40 0.067345380997096138 26 552 53 521 93 575
9979 -0.82848833053325011 1.4071332416625564 2.6826659848410412 50 84 41 0.058307286836652386 79 647 53 520
9978 -0.97000158915495205 1.2100649907004226 2.7115527764887495 58 92 41 0.18478660406243733 65 631 53 515 18 540 93 616 71 376 96 380 99 227
9977 -0.51367471541978971 1.6798884692033753 2.6412393912390186 54 96 48 0.073769921363501689 79 625 53 495 93 546 18 507
9976 -0.77714652296047027 1.3965788100229051 2.6277857524120538 237 225 145 0.026366710780082819 79 608 53 484
9975 -0.880825713149616 1.3321035389168649 2.6410835076346575 77 135 67 0.22748230517953716 20 513 53 480 93 532
9974 -0.64970739096251306 1.5058545706192752 2.5989102371057777 99 159 82 0.16289893986969184 20 494 53 460
9973 -0.885238119651926 0.97746335415340113 2.6920835193057995 79 55 30 0.31264639656585391 65 556 53 447 18 482
9972 -0.60178992373640272 1.4239885243265424 2.5724699927572532 96 162 84 0.013749636756287507 65 518 53 431
9971 -0.60391966511659045 1.4242986258698538 2.5714466828465543 96 162 84 0.14034593192652933 65 517 79 550 53 430
9970 -0.585568190295916 1.4026418522518431 2.5629563831305422 103 171 89 0.061833539851405196 79 549 53 428 93 474
9966 -0.32669185816100049 1.5143154992878856 2.5257628482258299 134 219 113 0.021898819065150565 79 499 53 397
9965 -0.40418002386660518 0.4373954535213645 2.8766362067581532 64 60 50 0.23263206336906539 65 450 53 381 93 427 18 414
9964 0.34973027824367597 1.432198398993199 2.4008908887247267 229 183 148 0.34047034077315352 76 993 53 315 93 339
9963 -0.038578847590395142 0.52643835832659147 2.581155016033057 172 173 183 0.037301798849784164 20 307 53 301
9962 0.43074039753330345 0.77712632489773692 2.5604111313689581 174 178 190 0.18168529869609737 79 352 53 289 93 316
9960 0.43757500166999835 0.75305325240357956 2.5484764638040693 157 161 170 0.78973577839682696 26 365 53 287 18 280
9959 1.0405343371538931 0.62347853409441356 2.6060578084969097 214 218 234 0.93123114139831564 55 22 53 268
9958 0.046905092306373748 0.56342423457577573 2.4189374818938401 49 95 50 0.19124925594045447 20 267 27 254 53 263
9955 -0.034865481288035335 0.41687417235712554 2.0538292956928972 0 0 0 0.033910555528969426 76 173 85 193
9952 0.03709070200881124 0.67333548826580125 0.48062512702702376 0 0 0 2.1319246155174403 54 890 98 664
9946 0.39604940908918596 1.0228305240304383 2.1364130443823894 70 112 47 0.22882230633483902 79 265 53 198 93 223 18 182 13 107 94 426 71 94 96 95 99 40
9943 -0.15016316574500749 0.40886249025702581 2.1977369334678136 46 75 41 0.16445293135017844 85 247 53 187
9941 -0.16396694217893898 0.39112826096239378 2.1834580625933473 166 166 122 0.087533292027100834 79 220 53 185
9932 -0.25292385477732765 0.23760124405279118 2.1537976956119951 123 122 84 0.14995834669448854 76 226 53 161 18 756
9931 0.55041625300478625 0.66264526325018824 2.0757849275971543 217 224 241 0.099940633879642082 65 131 53 158 93 164 18 140
9927 -0.17478051789212848 0.33887790029629111 2.084543425745927 129 132 92 0.063345178844898015 65 176 53 145
9923 -0.22496579907786057 0.25637977675464318 2.0593329885695653 164 150 97 0.074948261966019711 76 187 53 138 93 141
9922 0.16924034197506535 0.50627535664505674 1.9819666042886419 182 182 135 0.2719793777355764 7 106 53 135 18 117
9920 0.092749588585719592 0.47094460499998503 1.9966740028426884 58 84 46 0.17923575277151571 26 133 53 132 100 165
9919 0.10145393889732007 0.46344123111400326 1.9680497732824438 187 188 141 0.04578381391699618 26 135 53 130 93 134 18 101
9917 -0.026072076766244033 0.40631358460328643 2.0057073083904995 161 165 123 0.16308757360133316 100 140 53 124 93 128 7 72
9916 -0.10793782506782876 0.35091237953435417 1.9932956644098327 41 74 39 0.33434143866310473 20 116 27 93 79 151 85 164 100 117 53 119 76 170 43 205
9915 -0.019165167832313031 1.3990206606512361 3.0479906147036733 0 0 0 1.1387481841389735 82 635 83 526
9914 0.067449562232882981 0.86508846296266795 2.6492993963186819 56 93 49 0.078770666928651964 54 379 98 319 78 323
9910 -0.24770819725731019 0.18322907465011798 2.0497060366361279 36 73 40 0.33368870844183141 76 186 53 113 93 125 52 181 19 138
9905 -0.71244988507633955 0.59167763181173538 1.756675489974304 185 175 124 1.9163104326102376 49 1146 53 91
9903 0.49557652855289502 0.52825350799000093 1.798743163992979 135 137 149 0.018289007352728141 76 36 53 84
9901 -0.19671974109749343 0.11924815072551199 1.8520525627693074 49 96 54 0.12340776365748846 85 70 53 76 93 70
9900 0.58846086968324207 0.54141732632571671 1.7566217683690346 132 129 132 0.39765910799914411 79 70 53 73 93 67 18 61
9899 0.094232840417920335 0.35102083201902878 1.7832843142208457 60 108 59 0.22099306468520052 65 78 53 59
9898 0.015499356378993672 0.28491934536950725 1.7786650365471068 60 110 61 0.15318801561031486 59 865 53 54
9897 0.38790249986822017 0.43795482055815804 1.6482982173400935 216 221 238 2.3091274398221198 27 20 53 46 20 35
9896 0.23598336838387884 0.33205154285955302 1.6779739635684541 150 174 122 0.45255496888943386 27 699 53 44 18 26
9894 0.13939077369752659 0.22856670572657856 1.5928066111401 176 179 190 0.35598668215816909 65 701 53 9 93 8 18 11
9893 0.1502621005121976 0.23177413870625913 1.5721400778518297 229 217 199 0.35665176362710194 65 703 53 8 93 726 18 9
9892 0.14921474025870804 0.23769676745788904 1.5605387648312057 58 41 25 0.21577987224706002 65 4 53 7 93 7 18 1
9891 0.088763679971612303 0.2086210552565369 1.605471144541859 252 249 232 1.0082379340001615 79 791 53 6 93 6
9890 0.053562066354073658 0.19399526116467225 1.6025373488901498 249 248 232 0.50710113740141416 79 7 53 4 93 2 65 15
9889 0.049973471541893452 0.18148426464718478 1.598457550570421 65 55 47 0.14793841680913186 65 14 53 3 18 6
9888 0.131376057331554 0.3087090167054562 1.870323782351005 174 177 130 1.5917263525037468 53 2201 93 2173 18 2120 4 967
9887 0.45428853595663099 1.1263937254017056 3.4284124513774432 0 0 0 0.80874662350810511 61 2068 85 2186
9886 -0.8729862282459796 1.3563454474381262 2.7902795221112333 80 119 76 0.59856169785704272 60 2141 20 1956 27 1778 65 1886 61 2169 76 1972 18 1767
9885 -0.84258358181976289 1.3238497245809948 2.6299980678633603 84 151 73 0.90550608096406615 60 2360 79 2233 20 2032 65 2144 59 2479 37 2482 82 2564 61 2583 76 2374 19 1748
9884 -0.37488799025271574 1.0979539539269629 2.5712014114360744 62 108 53 1.344156321692253 55 2386 82 2597 49 2296 61 2571 76 2357 65 2053 82 2559 85 2433 60 2306 79 2210 19 1782
9883 0.3115921259838163 1.6254160472780566 2.6065994454357528 255 255 255 0.53206777953376272 77 2320 82 2278 61 2054 76 1842 65 1328 79 1793 20 1453
9882 -0.24203282935244455 0.24326291117544924 2.1172679659636615 50 103 52 0.36373560790793158 26 842 20 842 65 1561 95 80 77 1529 82 1977 43 1863 61 1962 76 1782 79 1366 93 1248 52 1422 13 863 22 806
9881 -0.23107842244312299 0.19752090252183821 2.0019732748090542 130 126 86 0.25171961514611418 61 943 76 880 65 1208 26 121 79 852 20 817 53 1219 93 795 18 1180 52 1140 19 1044 41 958 13 846 71 819 96 840 22 797
9880 -0.77428556599999909 1.4492456586282445 2.644178034047532 46 93 50 0.49989740950990336 85 1732 60 1949 65 1699 79 2039 20 2035 53 1939 93 1913 18 1757
9879 0.048399575930374618 0.50630801251881385 2.1562420655125916 53 102 55 0.25193348310210906 61 1550 76 1436 65 1219 26 1388 79 1383 20 1310 27 1227 53 1259 93 841 18 775
9878 -0.76057624181214512 1.4747905615207377 2.6758739686588284 54 101 51 0.26202169365035027 60 675 79 648 26 553 20 563 27 442 65 591 61 786 76 699 53 525 93 579 18 526
9876 0.014718140800065647 0.39487086793232645 1.8443214456118386 174 177 130 0.62723247290320505 76 2517 53 2200
9875 0.36914532080682122 1.2587811817856753 2.1624183614559054 160 139 107 1.228873684446159 33 1966 76 2509 65 2264 53 2189 93 2158 18 2105 52 2043 94 1405
9873 0.32423042195989532 1.1974486879323285 2.2584089306729411 0 0 0 1.3029454075087723 79 2391 65 2236 53 2158 93 2115 18 2069 52 2006 41 1724 13 1533 22 1424
9872 0.32480656137186875 1.1970838843214202 2.2588800939944793 0 0 0 1.2713480517097988 79 2392 65 2235 53 2159 93 2116 18 2070 52 2005 41 1723 19 1873 13 1534 22 1423
9871 -0.63602781580495593 1.2590637972649825 2.5834347265280924 224 225 138 1.1606151381577088 76 2474 65 2200 93 2038 53 2065 18 1992
9869 0.54082590476149828 0.87335229456726071 2.5632734912104338 1 0 0 0.8922962725020932 79 2264 65 2179 93 2118
9868 -0.96188640057394137 1.2912095584242496 2.8274075809270895 210 189 173 1.7086511655062409 79 2290 65 2152 93 2049 18 1949 93 2000
9867 -0.67945807439963879 1.2112818058498318 2.5829635031067468 227 225 138 1.1372577068617753 61 2578 65 2136 93 1974 18 1922
9866 -0.9798774441853414 1.3163316316342384 3.1575496788121602 90 65 38 0.80402705624821491 76 2317 65 2093 93 2055 53 2035 18 2005
9864 -0.97329389447493375 1.1896724030795474 2.8044407446059094 110 124 57 0.70415112547628467 76 2315 65 2086 52 1876 19 1754 13 1491 96 1423 22 1369
9863 -0.89529704419141809 0.9810587935682441 2.7634870260165401 195 170 132 0.86159475027903998 76 2246 65 2078 52 1938
9862 -0.4098486200234297 0.26055225978330421 2.2796646415206836 234 211 166 0.63249204644186052 76 2283 65 2031 93 1946 18 1896
9860 0.16066644164749538 1.9490782303856284 3.4099869001843484 0 0 0 1.1222916423645315 79 2068 65 2008 53 2033 18 1872 18 1953
9859 -0.60287348293290699 1.7086983612543658 2.8983332776845936 0 0 0 0.33633662411335158 76 2249 65 2007 18 1951
9857 -0.75287962166483691 1.1646092394384164 2.6182032980660526 95 137 66 0.41585252420757579 76 2239 65 1985 18 1741 19 1680
9855 0.21389171709047233 0.64728540651251087 2.3489521116711432 58 115 58 0.68302488215654145 79 2196 65 1937 53 1978 93 1948 18 1809
9854 -0.17019649137465137 0.40794776485037171 2.2319153965185206 160 163 115 0.2508320858758088 79 2093 65 1934
9853 -0.25637239787103849 0.20683758886600101 2.0931791993253581 87 102 65 0.27851935104048692 76 2273 65 1927 53 1876
9852 0.024309453602429344 0.44816916299892667 2.0352659140397864 179 187 137 0.010345344983830339 76 2167 65 1922
9851 -0.13220370975315199 0.27737886224237984 1.9167899258916754 166 162 117 0.20569088995107632 79 2081 65 1914 53 1865 93 1841 18 1790
9850 0.12986647233870668 0.44056432162654974 1.8905770294305817 78 110 61 0.30719922801225963 60 2284 65 1910
9848 -0.77466592025578673 1.4914783854908014 2.8865224240164902 172 168 170 0.68344381364521689 79 2157 65 1893 53 1952
9847 -0.97359153439963564 1.2297380581629831 2.7597539071582156 144 132 84 0.19240466119798733 79 2049 65 1878 53 1832 93 1921 18 1766
9844 -0.0390117394752654 0.50106636701598406 2.2881468708800985 127 146 102 0.086140049654384154 79 2097 65 1773
9843 -0.044988199200354767 0.47671531421174318 2.2189432687771551 186 203 137 0.020515348479075227 60 2026 65 1769
9842 -0.10157990874112677 0.42859208536767557 2.1722548202243344 0 0 0 0.28688332193153587 27 1722 64 1807 20 1890 79 1946 100 2067 60 2022 85 2118 37 2206 59 1931
9841 0.12148667228824477 0.34766879659398936 1.7559553017698544 83 116 66 0.21361108546327973 61 2397 65 1738
9840 -0.05546299060886218 0.17084808662776493 1.7651473901236427 126 131 91 1.2942027001554197 77 2215 65 1736 19 1010
9839 0.15354917584539604 0.24377884236960337 1.5923797032271381 103 83 64 0.26279181381300437 76 1983 65 1731 53 1733 93 1696 18 1652 52 1573
9838 -1.0271877766509023 1.2380781427245493 2.9405964479583973 74 55 36 0.53089785810993262 76 1713 65 1725 53 1722 18 1643
9834 -0.75342365797636612 0.74043114444433311 2.2207109986709268 229 211 176 0.37966077624091271 76 1868 65 1608 18 1508 93 1555 52 1648 19 1503 41 1429 9 1060 94 986
9833 0.32581689131103736 1.2250387853598128 2.2164202216232738 0 0 0 0.74636336114990953 79 1761 65 1582 52 730
9832 0.301502943017526 0.69107851393097774 2.3811227078385837 62 125 69 0.42259112006709804 79 1966 65 1579 53 1587 20 1699 18 1504
9831 0.4061561662635263 0.98470619135265347 2.1825092080875592 98 110 47 0.35131730140448403 76 1773 79 1744 65 1568 53 1570 93 1539 18 1488 52 1593 41 1381 19 1272 13 1098 71 1072 96 1068 22 1037 99 760
9829 -0.24293911849528999 0.24366179134046734 2.1171513901964412 38 81 44 0.19336716688160299 76 1783 65 1562 93 1247 52 1423 13 862 79 1365 71 832 22 805
9827 0.090351918857187657 0.28577456282219577 1.7217495831837675 71 119 62 0.49990715207161313 79 1697 65 1522 53 1186 93 1193 18 1130
9826 -0.86115528496803817 1.375814042987016 2.708135425172554 57 110 57 0.44313563735687778 79 1874 65 1477 53 1683 93 1646 18 1602
9825 -0.8102213759734519 1.4173487084452636 2.6690759844800946 50 94 46 0.088538447967565007 60 1702 65 1468 53 1673
9823 0.36907380679569923 1.0988109759459275 3.443339143812973 75 132 66 1.6239570360005708 63 1366 65 1442
9822 -0.15797860182577098 1.1783533991974877 3.0428579009160925 75 132 66 0.0014811703724847227 82 1769 65 1441
9819 -0.61396262057209783 1.334679605681393 2.5686547647340836 85 148 76 0.17725376925945974 12 1206 65 1420
9818 -0.42399015569720827 0.38856812266082763 3.1054617905257538 67 44 16 0.9834400149490945 79 484 65 1415 53 1025 93 1424 18 1370 52 1694 41 1476 19 1412 9 1224 94 1182 13 1179 71 1180 96 1170 22 1161 99 729
9817 -0.58962043069402359 1.0589399676565221 2.6040173654134553 216 211 122 0.093807051336661479 79 1512 65 1404
9816 -0.31592367071621358 1.177946515791219 2.5434791095775071 92 158 81 0.46058273098097224 76 1885 65 1355 18 887
9815 -0.1256365408897975 0.46371311466736193 2.3326509030682772 158 172 124 0.32748277337918558 60 1449 65 1257
9814 0.30350832218187784 1.2688689709525891 2.1699393445715005 172 149 113 0.35962417920643763 76 1449 65 1253 53 1290 18 1239
9812 0.44268098856684757 0.24605567775501741 2.522015803017764 161 170 124 0.54047788789404916 26 1429 65 1246
9809 0.36165754379490966 1.3424649980596179 2.1091687284838745 246 242 224 1.2428604114736952 26 925 65 1240 53 1277 93 868 18 209 18 1229 52 695 19 105
9808 0.29889604048708757 1.3146080875871597 2.1095812411466226 121 91 61 0.76020264606707055 79 1416 65 1239 18 1228 53 1572
9807 0.29105589148995725 1.2984206358942831 2.1169850076022207 243 229 190 0.18672314599403775 79 1755 65 1238 53 1275 93 866 18 1227
9806 -0.61155513255823968 1.3371985022029866 2.5662469088440671 102 177 80 0.22889111140139584 35 1707 100 1630 41 1057
9805 0.38657264982281375 1.0340336462030553 2.1444625819682996 133 131 64 0.29389813817241739 76 897 79 926 65 1226 52 1119 33 678 41 569 9 458 94 428 13 880 99 385
9804 -0.25370548364908957 1.3899044493009183 2.5162225064230417 0 0 0 0.01141375200715182 2 1663 33 1179
9799 0.37304970975592833 0.55242628049058595 1.8809592901747336 85 144 71 0.39220520082051769 76 1740 65 1182 53 1206 93 776
9798 -0.19453156697176627 0.073411372471276298 1.8450105065473588 194 194 203 0.12912164792702668 61 1504 65 1180
9797 0.036539107540960611 0.3181612824235065 1.7951182231780667 55 96 47 0.096762303290572699 64 1205 65 1175
9796 0.11717381622548211 0.20895281687426009 1.6230231420211219 251 242 223 0.1718528265475551 76 1725 65 1159 18 672
9795 -1.0673047255757961 1.3675138021353717 3.4266292509771961 244 219 170 0.53134316416530014 79 780 65 1155 53 1167 18 1436 52 1375
9792 -0.94137335305637793 1.3389122045232633 2.8215960599087229 124 94 65 0.20074502821628942 79 1659 65 1141 53 1479 93 1467 18 1409
9790 -0.91586711818912214 1.303720217938056 2.6572191540653169 67 121 57 0.48900588321806748 76 1310 65 1115 52 1032
9789 -0.91353073578724042 1.246671279444364 2.6629485566367119 165 174 101 0.1146951429389183 76 1308 65 1110
9788 -0.91404127920633393 1.2344402873446918 2.6610110673369345 68 114 55 0.05318611922179324 82 1395 65 1094
9786 -0.90664279057920771 1.1665608882354714 2.6665693538922195 102 124 62 0.005366400891666151 76 1298 65 1090
9784 -0.58817128588091094 1.4277022501662144 2.5677724076675728 253 239 151 0.050596920214827902 83 876 65 1050
9783 -0.64796081817340356 1.3136579547365921 2.5729746731566445 206 208 128 0.083613150299739647 59 1262 65 1049
9782 -0.67364554359722639 1.1050550132840655 2.6132060520557103 244 227 134 0.089270314020533315 76 1220 65 1046
9781 -0.42919179807433328 0.39626020580777221 3.0516048474761304 115 85 52 0.64824559217432853 79 483 65 1040
9779 -0.80108922357538837 0.82412159354796732 2.5618603966480902 226 203 158 0.20456080370686536 76 601 65 1022 18 924 93 396 99 113
9774 -0.43878759431708209 1.0365865727815078 2.5827201976619691 240 226 131 0.089201808557360651 76 1164 65 974
9773 -0.75342136939808413 0.78801257520324419 2.235234471234075 191 178 159 0.50468632038454331 79 996 65 904 53 871 93 902 18 843
9772 0.27448589158740383 1.3884494027729943 2.5123631733102543 8 0 0 1.3198976901807888 79 1021 65 896 19 710
9771 -0.012953148693677398 0.5332698507140422 2.4245300410793034 63 131 73 0.087212258241494561 79 1430 65 858
9770 -0.21345960091104588 0.38527502311095801 2.2801161295944081 116 125 75 0.3610193612272653 60 938 65 844
9768 -0.2392020278452896 0.35940281201654506 2.2896875801197889 42 78 36 0.062850373198713783 76 980 65 840
9767 -0.069479081546530722 1.6515485849754399 2.5303167930187636 0 0 0 0.16265695813568606 2 1103 34 1316
9765 0.34999594570981896 1.0728456246401834 2.1916955555651043 145 126 96 1.2133871150593705 79 951 65 823 19 1048 94 749
9760 -0.14558747085370635 0.38909891400099084 2.140001164452308 47 88 44 0.1452029613752425 26 1371 65 804 79 1368 93 826 18 760
9759 -0.2046092376871029 0.31069729005828201 2.0973777680030499 43 78 33 0.10280345931559058 76 916 65 803 18 758
9755 -0.0428492101394196 0.41815581856590872 2.0482738932146956 55 97 50 0.044926935401312991 60 1392 65 790
9750 0.88360738159685692 -0.58818732479043589 2.5207238108968366 0 0 0 0.98891261387728646 26 850 79 857
9747 0.033376722222395294 0.42270740918654437 1.9573885240256992 150 162 119 0.16815737789900176 79 845 65 777 18 100
9744 -0.1271689179224931 0.25681558807268184 1.8722328402054365 191 188 135 0.33274311434138293 76 853 79 829 65 767 18 713
9742 -0.10739571115564107 0.25830441179662805 1.8601185946068761 62 105 48 0.28572226573395659 79 822 65 756 53 736
9739 0.16332751997210415 0.33854684423342624 1.7202555435790416 172 175 120 0.63098326567862406 85 52 65 728
9738 -0.43017479464879299 0.46027053539502316 3.5980759588887015 168 151 127 0.43121774738948238 76 670 65 641 52 613 71 795 99 352
9737 -0.64126977054653422 1.6473639218526805 2.8317298376536115 35 23 13 0.32426148385439629 60 751 65 636 18 611 93 1145
9736 -0.84638366745797655 1.3935087842771434 2.7007699505644975 57 111 57 0.15671680569822838 79 1199 65 610 53 1085 20 1096 93 1098
9734 -0.772549396326215 1.4514788960934093 2.6271635221278853 65 121 57 0.25978417267132253 79 1178 65 589 53 1034
9733 -0.82044524429371923 1.3378249401505851 2.6345163649003802 81 140 65 0.18790916741927471 61 764 65 586
9732 -0.92261277290112864 1.2113540282460653 2.6657189796034655 69 109 51 0.14740066471736901 79 603 65 584 93 565
9730 -0.7820874048876052 1.3226295054575128 2.6143490354368315 88 143 70 0.23017028207003962 60 601 65 564 19 431
9727 -0.64025581949223032 1.4690694033007454 2.5865804234143845 89 151 74 0.08191527314179245 61 720 65 540
9725 -0.49183105194297094 1.6799884112106711 2.583495470469432 80 150 70 0.46463687997701575 100 1278 65 524 53 465
9723 0.15003927622600091 1.240522684241002 3.118557563489667 99 148 77 1.0686157934453455 61 548 71 360
9722 -0.80415018887116085 0.93559454880476289 2.6076098642913768 255 250 238 0.82353881438026344 61 658 65 506 93 435
9721 -0.40958823781759651 1.6069217444259263 2.5478938538630627 108 184 90 0.22756682312595614 61 1336 65 488 18 439
9717 -0.53021689152765417 1.1505338626103145 2.5744214737913835 226 218 130 0.097112878248644285 76 561 65 458
9716 -0.3214966530349484 1.5274597164121437 2.5263350398935507 111 195 99 0.04124864493477258 76 1172 65 438
9715 -0.3313358001873723 1.516708475690854 2.5227368938563597 116 196 99 0.085905018833191932 79 500 65 437
9714 -0.43930407138901806 1.1151877598962554 2.5624064733357881 254 237 137 0.093806162664825679 82 1279 65 429
9713 1.7912165033606486 0.54870803830138448 4.1168470455551205 105 158 77 2.1796296997781894 79 1126 65 425
9712 2.2522749989821231 0.45116317054371807 4.1907338201677256 195 182 108 0.61481128772693294 79 477 65 386
9711 -0.29441781280617357 0.3907914340740315 2.5828065809713876 143 142 150 0.46926044063976857 20 298 65 343 93 325 18 311
9710 0.14620533628478782 0.64688986251840852 2.5614472041913037 90 73 43 0.50968430415487775 76 271 65 282 18 299
9709 0.03754125031531079 0.55515920184943879 2.4294589556222101 65 139 81 0.053696893325303301 79 325 65 263
9708 0.037412943835201766 0.55460202098665756 2.4291382989991663 65 139 81 0.21405665393985754 79 324 65 262 18 253
9707 0.44733057011664118 0.73009654937343704 2.4070119650077504 146 195 140 0.29581572976406112 76 202 65 232 53 867
9706 0.38874358289424121 0.19608379568422521 2.5149734161810828 52 87 45 0.57091777258788767 26 306 65 219
9704 -0.20916139945744391 0.35931682242509072 2.2069733289348972 48 80 37 0.18192992839257349 20 187 65 217
9702 0.4039626841460689 0.99745457805241999 2.1920559937970929 97 108 50 0.31822318399744987 79 264 65 199 93 242 52 152 49 116 41 90 19 124 94 32 96 108 22 74
9695 0.15469749385878853 0.54499278593141409 2.0875185260959288 54 98 51 0.25232308839528295 79 878 65 158 93 832 53 787
9694 -0.37983220364100351 0.66723722943444996 1.8602335280186229 166 174 127 1.9627350854128558 83 58 65 154
9688 0.048787478611001203 0.44915458517824375 1.9944181957634677 171 176 131 0.090137122639609657 79 859 65 128
9686 -0.12655852077701191 0.30653019576469742 1.9497623923141574 51 84 43 0.088444250647071954 59 146 65 120
9685 -0.25954476362535694 1.4044081112272675 2.5191975725423248 0 0 0 0.17508736518109291 16 576 63 526 74 636 77 626 82 632 34 628
9680 -0.25496833099686134 1.3008635820734746 2.5216911746527453 0 0 0 0.06676660456546693 43 512 63 521
9679 -0.17033109138371882 0.20395023833426187 1.874658975668356 65 93 53 0.098656518554187306 79 110 65 96
9678 -0.16846549778641284 0.20320140253583524 1.8750819740690052 65 93 53 0.0063296817023882996 59 84 65 95
9675 -0.093969439306172686 0.23879578298668702 1.8335446940447711 53 96 48 0.2317078772547988 59 62 65 86
9673 0.1473717011224763 0.36565051369552143 1.7673839975759977 70 114 57 0.16479935224837422 64 752 65 57
9672 0.32646228437425556 0.33424289998380258 1.5889066960189484 124 105 83 1.8042996802805329 60 1297 79 1288 26 1297 20 1232 27 1162 35 1850 59 1891 37 1877 100 1777 82 1924 85 1812 49 1669 43 1779 64 1553 7 1340 95 2064 74 2243 34 2320 16 1944 62 1776 12 1767 54 1711 63 1636 63 2127 55 2239 80 1178 75 1097
9671 -0.10990255504630657 0.14095112232138476 1.7286280146976731 198 199 210 1.6341324798940926 35 839 59 840 85 818 83 645 34 1374 59 1403 82 1465 43 853 76 813 49 182 60 1315 79 1292 26 1298 20 1235 55 141 63 166 53 708 93 1190 18 1128
9670 -0.12753921783980038 0.15552262919322418 1.791925596159375 57 111 61 2.228306924690485 16 699 2 700 62 682 77 1949 74 1750 34 2084 54 780 98 179 95 798 16 700 63 840 55 1398 49 1364 43 1817 82 1945 61 2206 76 1741 77 1950 33 721 62 11 2 10 41 95
9661 -0.63161465765403069 1.2633644453145496 2.0123306066000226 0 0 0 2.3084000088073888 26 299 77 656
9626 0.61546508400475353 0.58539690407286371 1.9136608716199295 255 255 255 0.35089568848207026 27 111 34 931
9587 0.23939762265997028 0.30060915198036753 1.6701693301870251 44 86 53 0.8592100121457743 35 2091 95 1295 74 1761 34 1819 16 743 12 710 77 1938 63 1241 59 1890 37 1880 100 2195 82 1928 100 1781 55 1327 49 1314 43 1784 64 2052 83 1077 7 1802 60 2280 79 2178 26 2157 65 2015 80 1475 75 1487 46 1225 27 1826
9586 0.3219319647811833 0.51819630764554614 1.8886010854341206 164 184 127 1.300878726139741 63 2266 55 2343 43 2427 76 2377 35 2484 95 2276 34 2470 16 2136 2 2052 77 2653 59 2549 37 2553 100 2435 82 2622 85 2490 61 2588 64 2210 60 2380 7 1977 27 2018 79 2304 26 2280 20 2171 53 2045 93 1937 18 1879 80 1679 75 1607 46 1535 69 1245
9585 0.19554201968579757 0.35420427409008354 1.7318053540889071 179 181 128 0.58808123414660241 34 2322 77 2492 100 2197 95 2065 35 2247 74 2165 16 1947 2 1874 12 1765 63 2043 37 2341 85 2259 43 2209 61 2399 76 2153 64 1959 83 1700 26 1936 20 1870 27 1705 60 2162 79 1913 80 1351 75 1300
9584 -0.36633977861874606 1.7575953359629559 2.6961434224666716 166 174 130 0.048220817773175967 20 644 27 1056
9583 0.10214494420522655 0.48716284992144693 2.0236107888650086 46 96 55 0.11950905600335392 20 835 27 761
9582 0.08021959427357099 1.2715418762519988 1.9872608092024457 223 215 157 3.5578913787880171 95 627 27 164
9580 -0.7994569851748623 0.94999003460383458 2.5973877981714271 253 244 248 0.67044097866118035 16 2055 62 1942 98 1625 27 1938 64 2075 26 2192
9579 0.30209804769649051 0.67431725002662968 2.2514496643195798 136 143 99 0.24293366164622382 60 1438 20 1343 27 1258 64 1288 7 1130
9578 0.10241689325019283 0.50581104773146224 2.0706961104411614 47 93 50 0.078984635378837334 85 924 60 882 20 849 27 769 79 876 100 901 26 849
9577 -0.70044027415115173 1.5912157378874789 2.8501426322112771 189 187 195 0.59235887571420043 79 1667 20 1566 27 1441 26 1245 20 1178
9576 0.31726050507763082 0.57064773889900522 1.9812671166026363 143 160 110 0.60166301867573835 79 2253 20 2134 27 1989 59 2491 100 2382 64 2162 7 1934 80 1681 75 1608 46 1536 39 1452 69 1204 11 1197
9575 0.20769790695825074 0.26592763908748346 1.5817038636326366 203 206 220 0.34158801909800751 35 2246 59 2334 37 2337 100 2191 85 2251 64 1953 7 1707 27 1824 26 2064 20 1983 80 1473 75 1399 46 1348 69 1000
9573 0.089189448208696787 0.2086765528134181 1.6042718036186161 114 93 74 0.61286695346273568 26 758 20 3 27 0 59 16 37 23 100 13 85 11
9572 0.069931944058379769 0.56951084827056941 2.3734177644191625 51 93 50 0.59355352647435666 20 2225 27 2075 65 2178 53 2115 93 2084 18 2034
9571 0.10780179828581533 0.39548417067577296 1.844754400935757 61 116 65 0.39013154939992301 26 2278 27 2016
9570 -0.078857173344642081 0.40584679618602088 2.034259574932658 48 98 54 0.43821464647436259 26 2239 27 1987
9566 -0.16511105492158173 0.39962569274657594 2.2356882696744091 143 145 104 0.20621403681910477 26 2084 27 1841
9564 -0.22535472840586632 1.7809979221405179 2.6280327986929777 54 92 46 0.1678639275367392 26 1874 27 1780
9563 -0.22461963963454587 1.7803379831922426 2.6289573488535218 54 92 46 0.18786093258961581 26 1873 27 1779 80 1316 75 1248
9562 0.12537146151605225 0.60016257144341101 2.3478097308705483 143 149 106 0.28971157006623438 26 1964 27 1737
9561 -0.11384926909803965 0.47653472013174597 2.4042289378000792 149 157 112 0.096434060025270191 26 1743 27 1735
9558 -0.19247779908236057 1.7944985795086628 2.6788255484294745 167 176 131 0.066672721705746063 26 1886 27 1644
9556 0.0065226334028170088 1.8164837798680502 2.6043660142315872 42 72 37 0.074556634445855891 26 1579 27 1625
9555 0.38887879220094485 0.79329425745596449 2.5967859228031354 0 0 0 0.59215809262552488 85 1907 27 1570 69 905
9554 0.20580737684627554 0.69390940867710194 2.6238632636317032 174 183 199 0.24353940859066395 79 1452 27 1569 65 885
9550 -0.12801048826514649 0.46313549851350122 2.3343876994399371 141 148 106 0.0090368358137050114 20 1682 27 1532
9548 0.18147023346770794 0.56750884535220225 2.1294531151984435 142 146 104 0.081441762629129305 26 1722 27 1517
9546 -0.019757538102117115 0.39085627744113166 1.957597930857006 146 153 106 0.057487024815790391 100 1795 27 1497
9544 -0.56988209425173508 1.7374129187394407 2.8916538816320796 157 113 78 0.016982528303480644 20 1214 27 1458
9543 -0.59560539551273517 1.6403664078924274 2.7148378580512413 53 106 57 0.17091538556508001 20 1540 27 1411 53 1457 18 1032
9542 -0.82195656072889578 1.427168089282091 2.8137083223214368 166 161 163 0.45963150766046967 26 1609 27 1410 93 1469 18 1411
9540 -0.42503339388977346 1.7303971746747806 2.6567859848046789 179 179 136 0.11862699857759032 26 1180 27 1397
9539 -0.55757306120574746 1.6600762514138314 2.6704825736540556 158 156 115 0.17934370160580432 79 1205 27 1392 53 1067 93 1080 18 1018
9538 -0.56340525930981677 1.6509661661464663 2.6492846931568481 50 101 55 0.1444184179001827 20 1519 27 1390 79 1633 53 1445 93 1061 26 1596
9535 0.34272679934821332 1.412091395444462 2.3934371212632186 124 97 73 0.10557539735383697 26 988 27 1311
9534 0.25226837015765941 0.67548863074045096 2.4253032693625793 103 126 85 0.46439819702978968 26 1447 27 1289
9533 0.1877839023685603 0.63085075530760915 2.3295636218062485 151 152 108 0.11222448480500739 20 1356 27 1276
9532 -0.4163228241841101 1.9285922330143264 1.9830211902480108 155 156 112 2.8950762672993391 100 1974 27 1275
9529 -0.055815654004990424 0.50518277910567189 2.3519320992352468 142 150 105 0.043414167932718267 26 1428 27 1270
9524 -0.10680020857262992 0.43909577441444747 2.2073338726486105 159 160 115 0.053678638926282836 60 1432 27 1235
9521 -0.68306879409626875 1.3015096182920802 2.5942158093409469 0 0 0 0.077719139770060564 34 2006 74 1906
9520 0.0040527033142238392 0.46079940883969239 2.0892495081441878 166 167 121 0.13978681020098033 26 1374 60 1405 79 1370 27 1217 65 1214
9518 -0.14229236914823581 0.36536491701881629 2.0800982710415798 53 103 55 0.38628123161045108 20 1295 27 1202 18 1195 65 1551
9515 0.02418884235405637 0.37812031742215291 1.8902608724511054 58 113 63 0.19408994604335147 79 1332 27 1191
9514 -0.122739800962873 0.29279109804555736 1.9374277312718438 146 149 101 0.24002863780122363 20 1268 27 1188
9513 0.18578678981777647 0.3972123030700826 1.7833152249568742 161 168 118 0.2807506626141425 37 1896 27 1173 65 1170
9512 0.088522127458331434 0.33215366096448967 1.7769025419569107 144 162 103 0.1154475705396045 20 1244 27 1171
9511 0.057150638428603122 0.2094769851612889 1.5965874835781095 92 71 49 0.70963549287098149 26 1674 27 1156 80 1339 75 1095 69 663
9506 -0.7634771877763723 1.4746684018455558 2.7308692712771045 55 115 64 0.262387641105155 20 1124 27 1024
9505 -0.0044812868669306793 1.815402635667082 2.6157631730862025 127 144 105 0.033409351103415419 20 553 27 1020
9503 -0.047806545758338752 1.8011955317346828 2.5889989504626425 41 69 36 0.090823291037098491 26 1135 27 1016
9502 -0.047806545758338752 1.8011955317346828 2.5889989504626425 41 69 36 0.090823291037098491 26 1136 27 1015
9501 -0.078999140671375756 1.8044795647029437 2.6084341412321597 105 130 87 0.19253687981071738 20 551 27 1014
9500 -0.54182140657800437 1.6493441975206693 2.6179118142402862 49 99 55 0.15252302808225873 20 1085 27 997 93 543
9498 -0.12677769776685799 1.5212240649860866 2.5226893896883116 135 210 104 0.17070592400779017 26 1056 27 937
